# .PCD v0.7 - Point Cloud Data file format
VERSION 0.7
FIELDS x y z normal_x normal_y normal_z curvature
SIZE 4 4 4 4 4 4 4
TYPE F F F F F F F
COUNT 1 1 1 1 1 1 1
WIDTH 670
HEIGHT 1
VIEWPOINT 0 0 0 1 0 0 0
POINTS 670
DATA ascii
0.89410025 -0.67400044 0.31234863 0.55706197 -0.12406868 -0.82115102 0
0.52384007 -0.59854627 0.3009524 -0.50744492 1.1651242e-07 -0.8616842 0
0.59900928 -0.59777373 0.26806098 -0.29087552 6.7875646e-08 -0.95676088 0
0.68049312 -0.59916151 0.25353917 -0.055983052 1.1284928e-07 -0.99843174 0
0.75824606 -0.60027164 0.2579636 0.16860273 1.1947527e-07 -0.98568404 0
0.84021991 -0.59819311 0.28281331 0.40414688 8.4893024e-08 -0.91469413 0
0.89380926 -0.59961396 0.31141299 0.55785793 9.248188e-09 -0.8299365 0
0.52524298 -0.51966709 0.30014163 -0.5038271 4.015194e-09 -0.86380458 0
0.59967071 -0.52253032 0.26796329 -0.28964078 1.1481565e-08 -0.95713544 0
0.68263078 -0.51739812 0.25342438 -0.049927842 3.1343859e-08 -0.99875283 0
0.7614041 -0.52191961 0.25852591 0.17795773 6.9944441e-08 -0.98403817 0
0.84219229 -0.51939213 0.28362247 0.40980566 5.8279682e-08 -0.91217285 0
0.89476883 -0.51975203 0.31207806 0.5600906 4.5121737e-08 -0.82843131 0
0.52583498 -0.4411422 0.29981664 -0.50087577 -7.4632823e-08 -0.86551917 0
0.59844738 -0.43900493 0.26827317 -0.2931287 -5.3666613e-09 -0.95607299 0
0.68131202 -0.44180486 0.25353342 -0.054187834 -2.6515371e-08 -0.99853075 0
0.7585972 -0.44085565 0.2579776 0.16987385 -4.2763282e-09 -0.98546576 0
0.84249449 -0.43741256 0.28388339 0.41068131 5.2415157e-09 -0.91177899 0
0.89468277 -0.43616837 0.31199569 0.55998737 6.6637753e-08 -0.82850111 0
0.52731502 -0.36133355 0.2989009 -0.4980925 1.8505808e-08 -0.86712396 0
0.60241318 -0.36262962 0.2670694 -0.28078169 4.0812576e-08 -0.95977169 0
0.68172246 -0.36170715 0.25354153 -0.053084176 1.6240223e-08 -0.99858999 0
0.76162934 -0.36253348 0.25856456 0.17738843 1.8885959e-08 -0.98414093 0
0.84057683 -0.36098528 0.28283492 0.40460688 6.7485608e-08 -0.9144907 0
0.89266926 -0.35892648 0.31067753 0.55461121 8.25341e-08 -0.83210957 0
0.52796727 -0.28015953 0.29858112 -0.4960508 1.8075275e-07 -0.86829358 0
0.59799671 -0.2825675 0.26841229 -0.2941066 7.3429256e-08 -0.95577264 0
0.6810782 -0.28063321 0.25348496 -0.053364441 1.7482871e-07 -0.99857509 0
0.76108325 -0.27855006 0.25849551 0.1752778 1.3200231e-07 -0.984519 0
0.84056675 -0.28241867 0.28289855 0.40523836 1.741324e-07 -0.91421103 0
0.89303005 -0.27571511 0.31089112 0.55616993 9.6334077e-08 -0.83106858 0
0.52673066 -0.19916788 0.29939687 -0.50002748 1.0351104e-07 -0.86600953 0
0.60080034 -0.19927646 0.26756951 -0.28654432 4.3644501e-08 -0.958067 0
0.67795718 -0.20162776 0.25381583 -0.063367121 1.4683964e-07 -0.99799031 0
0.76062834 -0.20229201 0.25835258 0.17474625 1.5433109e-07 -0.98461354 0
0.83974731 -0.19790168 0.28264561 0.40315232 5.7866092e-08 -0.91513294 0
0.89288056 -0.19866721 0.31079841 0.55483985 7.3646497e-08 -0.83195716 0
0.52785701 -0.11912245 0.29871458 -0.49668026 -6.7665482e-08 -0.86793357 0
0.59888071 -0.11697829 0.2681413 -0.29152921 -1.6497221e-08 -0.95656198 0
0.67843032 -0.1196509 0.25367483 -0.061052054 -5.3827431e-08 -0.99813461 0
0.76063341 -0.12155984 0.25843808 0.17445849 -1.9174632e-08 -0.9846645 0
0.84022731 -0.12101564 0.28278232 0.40428627 -9.0701356e-08 -0.9146325 0
0.89222836 -0.11850979 0.31035402 0.55379808 -8.9873701e-08 -0.83265108 0
0.52543515 -0.0388356 0.29997066 -0.50314546 -5.6945943e-08 -0.86420178 0
0.59932059 -0.041491751 0.26805252 -0.28960329 1.6403838e-08 -0.95714676 0
0.6789825 -0.037034649 0.25364918 -0.06024174 -5.5911592e-08 -0.99818385 0
0.75929487 -0.038590267 0.25814447 0.17149848 6.4595734e-10 -0.98518437 0
0.84124362 -0.040524308 0.28326806 0.40703389 -7.9265014e-08 -0.91341305 0
0.89282024 -0.038744334 0.31075853 0.5544343 -4.2949001e-08 -0.83222741 0
0.52792299 0.040778328 0.29855633 -0.49527073 1.1958521e-07 -0.86873871 0
0.59853184 0.042679023 0.26824233 -0.29301497 1.5536683e-07 -0.95610785 0
0.6782068 0.038473081 0.25379637 -0.062578365 5.2629563e-08 -0.99804008 0
0.75839156 0.040572885 0.25806275 0.1686437 1.0744171e-08 -0.98567706 0
0.84040511 0.039972126 0.28278014 0.40504506 1.0161862e-07 -0.91429675 0
0.89438689 0.039454654 0.31180599 0.55926967 1.2569858e-07 -0.82898581 0
0.52378827 0.11592851 0.30099308 -0.50831324 1.0791663e-07 -0.86117226 0
0.59976095 0.11864538 0.26794633 -0.28804237 2.4784796e-09 -0.95761764 0
0.67991441 0.11923464 0.25360316 -0.057446696 7.4536601e-08 -0.99834853 0
0.76108611 0.11993666 0.25843984 0.17648813 5.1731476e-08 -0.98430276 0
0.84336746 0.11766687 0.28423098 0.41289276 -5.4109357e-08 -0.91077971 0
0.89353764 0.12054156 0.31122804 0.55607224 7.5285982e-08 -0.8311339 0
0.52583522 0.20126463 0.299786 -0.50201672 4.6483247e-08 -0.86485791 0
0.60001177 0.19550879 0.26790586 -0.2881476 4.9146745e-08 -0.95758599 0
0.68316859 0.20136684 0.25343671 -0.048139833 1.7706623e-07 -0.99884057 0
0.75894487 0.19745784 0.25800273 0.16865957 1.9331263e-07 -0.98567438 0
0.83869565 0.20105055 0.28209013 0.39958572 5.3825783e-08 -0.91669577 0
0.89365304 0.20295578 0.31132072 0.55812299 1.5399518e-08 -0.82975823 0
0.52579045 0.28099501 0.29978165 -0.5016818 9.2716093e-08 -0.86505222 0
0.60160226 0.27906105 0.26733798 -0.28414229 1.8823647e-07 -0.95878214 0
0.68091673 0.28251597 0.25365591 -0.054765351 1.3537155e-07 -0.99849927 0
0.76025146 0.28170988 0.25844926 0.17327993 1.5403153e-07 -0.98487258 0
0.84360623 0.27925596 0.2843028 0.41332689 2.0734596e-07 -0.91058272 0
0.89207494 0.27901569 0.3102603 0.55277884 6.0283831e-08 -0.83332801 0
0.52552545 0.35780984 0.29993731 -0.50231189 8.7851525e-08 -0.86468649 0
0.59854931 0.35807672 0.26828596 -0.29244596 1.8099075e-07 -0.95628208 0
0.67871523 0.36038736 0.25378081 -0.061443765 4.8028859e-08 -0.99811053 0
0.76028323 0.3608588 0.25830075 0.17335249 5.4702742e-08 -0.98485976 0
0.83854532 0.35690317 0.28211752 0.39943022 1.7627548e-07 -0.9167636 0
0.89312804 0.35949931 0.31096044 0.55480653 -6.3570336e-09 -0.83197945 0
0.52816099 0.44290209 0.2985355 -0.49608123 6.2961398e-08 -0.86827612 0
0.59802401 0.43977118 0.26837111 -0.2945115 6.5391973e-08 -0.95564795 0
0.68012631 0.44380188 0.25358567 -0.057981342 2.3583379e-08 -0.9983176 0
0.75935787 0.44227943 0.25820148 0.17181164 3.4064801e-08 -0.98512983 0
0.84327859 0.4409287 0.28410783 0.41189983 4.6897235e-08 -0.91122919 0
0.89346874 0.43994245 0.31116146 0.55710226 -5.0082424e-08 -0.8304438 0
0.52522498 0.52023989 0.30022398 -0.5039863 9.2929193e-09 -0.86371166 0
0.59752023 0.51991206 0.26847154 -0.29485366 -4.1020325e-08 -0.95554245 0
0.68132079 0.52212358 0.25350112 -0.054658536 -3.4047254e-08 -0.99850506 0
0.76101321 0.5223158 0.25843364 0.17564429 -6.5648429e-08 -0.98445368 0
0.8410213 0.52274048 0.28316268 0.40649009 -2.8916368e-08 -0.91365522 0
0.8943873 0.51861286 0.31181702 0.55855423 -1.0306464e-08 -0.82946801 0
0.52485424 0.60015357 0.30031443 -0.50435811 -8.8265466e-08 -0.86349458 0
0.60008389 0.59857374 0.26773906 -0.28810447 -9.3666984e-08 -0.95759898 0
0.679591 0.59780151 0.25374854 -0.058411691 -6.2127789e-08 -0.99829262 0
0.75672424 0.60072356 0.25776821 0.16334301 -1.5035526e-07 -0.98656929 0
0.84191602 0.59881026 0.28350636 0.4092778 -6.3200766e-08 -0.9124099 0
0.89432502 0.60107744 0.31171808 0.55823421 1.2149629e-07 -0.82968336 0
0.52868176 0.6763621 0.3008827 -0.48180044 0.24989282 -0.839894 0
0.59927213 0.68204713 0.27931949 -0.23243153 0.61785567 -0.7511524 0
0.68245298 0.68779516 0.27323976 -0.031922814 0.82354718 -0.56634867 0
0.75895548 0.6855256 0.27408031 0.11153794 0.73149884 -0.67265791 0
0.83917987 0.68064529 0.2892254 0.36320427 0.45477441 -0.81318074 0
0.89387035 0.67319345 0.31174421 0.55418324 0.097127125 -0.82670873 0
0.4501242 -0.6782856 0.3673777 -0.68064362 -0.36316657 -0.63626587 0
0.51543498 -0.69578779 0.35532716 -0.087283432 -0.98983264 -0.11230754 0
0.59743893 -0.69999874 0.3582634 7.5777244e-08 -1 7.3884178e-07 0
0.68228406 -0.69999892 0.36161929 6.2715309e-08 -1 1.5702122e-08 0
0.75896102 -0.69999886 0.36082184 1.0119806e-07 -1 2.6757024e-07 0
0.84031129 -0.6999988 0.3638854 -4.3840748e-07 -1 6.5026973e-07 0
0.92473364 -0.68702835 0.35580239 0.42767337 -0.7742967 -0.46643338 0
0.97213852 -0.67280865 0.3848246 0.77787942 -0.11048718 -0.61862439 0
0.44560874 -0.59797716 0.36452726 -0.73375154 2.2793477e-08 -0.67941785 0
0.4870002 -0.59633708 0.32516873 -0.61257058 -8.6074401e-08 -0.79041594 0
0.93553513 -0.60152853 0.34501335 0.67848694 2.8790181e-08 -0.73461241 0
0.97399461 -0.60079139 0.38616052 0.78749287 -4.6103626e-08 -0.61632377 0
0.44623137 -0.51948154 0.36398512 -0.7327314 4.0124181e-08 -0.68051791 0
0.48802602 -0.52050436 0.32438695 -0.60925722 -9.1119126e-08 -0.79297268 0
0.93514276 -0.52184951 0.34471253 0.67789006 2.5038615e-08 -0.73516321 0
0.97170705 -0.51951772 0.38328761 0.78159016 -3.1248391e-08 -0.62379229 0
0.44687843 -0.4413088 0.36321762 -0.7302112 2.8720272e-08 -0.68322146 0
0.4867022 -0.43767837 0.32539865 -0.6134665 1.0102157e-07 -0.78972077 0
0.93356764 -0.44235218 0.34329677 0.67280549 4.4828827e-08 -0.73981941 0
0.97183323 -0.43834642 0.38346601 0.78191888 -3.2020672e-08 -0.62338024 0
0.44301888 -0.36159179 0.36727986 -0.74118233 3.703551e-09 -0.67130375 0
0.4860549 -0.36315435 0.32590467 -0.61465502 1.6297017e-07 -0.78879601 0
0.93482095 -0.35939154 0.3443999 0.67664319 7.3224813e-09 -0.73631108 0
0.97286063 -0.35917553 0.38471335 0.78478724 -1.4235265e-09 -0.61976534 0
0.4438132 -0.28024918 0.36631495 -0.73844415 -7.586128e-08 -0.67431456 0
0.48588422 -0.2816349 0.32603684 -0.61656475 4.9203219e-08 -0.78730422 0
0.93392688 -0.278431 0.34363288 0.67399079 -3.3216736e-08 -0.73873973 0
0.97159958 -0.27796575 0.3831228 0.78091133 -1.3925463e-08 -0.6246419 0
0.4492065 -0.20109443 0.36071083 -0.7232495 -4.4614912e-09 -0.69058681 0
0.48693803 -0.19593251 0.32521653 -0.61244893 1.5439441e-07 -0.79051018 0
0.93333948 -0.2006779 0.3430118 0.67192453 -2.6078675e-09 -0.7406196 0
0.97285718 -0.20095737 0.38475555 0.7849583 1.3922264e-07 -0.61954868 0
0.44726112 -0.12300864 0.36282772 -0.72943097 1.8741888e-08 -0.68405443 0
0.48597813 -0.11569808 0.32596546 -0.61574161 -2.3278655e-08 -0.78794813 0
0.93613034 -0.11947953 0.34561801 0.68098474 1.4383292e-08 -0.73229754 0
0.97440398 -0.11887914 0.38666162 0.78955293 1.0899264e-08 -0.61368245 0
0.44354641 -0.040038966 0.36665884 -0.73935008 -1.7352029e-08 -0.67332119 0
0.48664057 -0.045869578 0.32544777 -0.61437976 -1.7085972e-08 -0.78901041 0
0.93327731 -0.041218162 0.34297758 0.67144835 -1.4684683e-08 -0.74105138 0
0.97244966 -0.041016065 0.38419235 0.78321296 3.2898576e-08 -0.62175351 0
0.44474095 0.041057222 0.36538681 -0.7360059 4.4090697e-08 -0.67697513 0
0.48708525 0.033272259 0.32511312 -0.61171621 -1.0376501e-07 -0.79107732 0
0.93414748 0.039052084 0.3437199 0.67412513 -8.8092442e-08 -0.73861724 0
0.97231138 0.042571478 0.38406473 0.78319544 1.0012914e-08 -0.62177563 0
0.44593218 0.12058866 0.36421525 -0.73323309 6.7405956e-08 -0.67997742 0
0.48820993 0.12204758 0.32423893 -0.6085453 1.4139873e-07 -0.7935192 0
0.93580359 0.11689642 0.345166 0.6789431 3.263114e-09 -0.73419082 0
0.97246963 0.11876315 0.38421994 0.78414243 7.2415553e-08 -0.62058085 0
0.4453392 0.19902983 0.36483911 -0.73481476 1.2005368e-07 -0.67826784 0
0.48755157 0.20440829 0.32473853 -0.61127043 1.6382917e-07 -0.79142189 0
0.93614405 0.20193872 0.34559274 0.68109566 1.6589725e-07 -0.73219442 0
0.9726423 0.20318399 0.38440809 0.78381848 -6.5057691e-08 -0.6209901 0
0.44838405 0.28156883 0.36125478 -0.72510344 1.0617741e-07 -0.68863994 0
0.48702595 0.2835941 0.32515162 -0.61409843 1.7061183e-08 -0.78922945 0
0.93284333 0.27545312 0.34276241 0.67139316 1.8136687e-07 -0.74110132 0
0.97278666 0.28482014 0.38465482 0.78443033 -9.8517106e-08 -0.62021697 0
0.44662386 0.35967335 0.36350787 -0.73112893 6.2539534e-08 -0.68223929 0
0.48809937 0.35495234 0.32431415 -0.61110896 -1.2966845e-08 -0.79154658 0
0.93631011 0.35623127 0.34584102 0.68158841 9.9672995e-08 -0.73173577 0
0.97234756 0.36024252 0.38412294 0.78372276 5.6220156e-08 -0.6211108 0
0.44441703 0.44001448 0.36576039 -0.73746681 8.7226439e-08 -0.67538345 0
0.48669595 0.44050869 0.32540566 -0.61404908 1.3597045e-07 -0.78926784 0
0.93355495 0.44258061 0.34312189 0.67189676 3.0831455e-08 -0.74064475 0
0.97305834 0.44411808 0.3849594 0.78568423 1.6177158e-07 -0.61862779 0
0.44409779 0.51792812 0.36610189 -0.73830765 1.9055973e-08 -0.67446411 0
0.48606914 0.52433419 0.32589522 -0.6165179 7.7231526e-08 -0.78734082 0
0.93533927 0.51996064 0.34472707 0.67753541 3.4428183e-08 -0.73549014 0
0.97290879 0.518215 0.38474301 0.78470993 1.1552069e-07 -0.61986309 0
0.44534206 0.60063028 0.36480665 -0.73444527 3.0386822e-09 -0.67866802 0
0.485982 0.60369968 0.32595697 -0.61703187 -2.4855936e-08 -0.78693819 0
0.93515664 0.60215777 0.34465343 0.6768868 3.3774906e-08 -0.73608714 0
0.97248024 0.60548311 0.38422126 0.78363901 2.7894343e-08 -0.62121648 0
0.44946551 0.68115759 0.36683276 -0.66795564 0.39419556 -0.63122511 0
0.51717019 0.69678664 0.35818276 -0.071847156 0.99307102 -0.092993744 0
0.60048318 0.69999897 0.36185035 2.0777742e-07 1 5.3469745e-07 0
0.67898762 0.69999915 0.35803822 -5.8482104e-08 1 1.2870584e-07 0
0.75992042 0.69999874 0.36031413 3.1116951e-08 1 2.4519645e-07 0
0.83860165 0.69999874 0.36067671 -3.3958855e-07 1 6.2403899e-07 0
0.92243415 0.68659228 0.35377526 0.42046949 0.778117 -0.46662548 0
0.97088718 0.67342943 0.38396668 0.77560031 0.11203352 -0.62120259 0
0.38664871 -0.674348 0.45202345 -0.89023316 -0.16618344 -0.42410856 0
0.43156406 -0.69314796 0.43377233 -0.22636501 -0.96335959 -0.14386497 0
0.51888818 -0.69999886 0.44246948 2.9734521e-08 -1 -1.2529829e-07 0
0.60348564 -0.69999927 0.43955424 -3.9657399e-07 -1 -1.1033341e-06 0
0.67914474 -0.69999909 0.44121984 5.6595132e-07 -1 -1.0041591e-06 0
0.76122838 -0.69999862 0.4386383 9.5435205e-08 -1 -4.8125213e-07 0
0.84098905 -0.69999892 0.43902966 3.7963153e-07 -1 -3.8761405e-07 0
0.92287719 -0.69999915 0.43569845 -5.164286e-07 -1 1.7127455e-07 0
0.99824065 -0.68144923 0.44165167 0.73607028 -0.55576098 -0.38643289 0
0.38623327 -0.59955341 0.45121837 -0.90358335 1.0711528e-07 -0.42841238 0
0.40798515 -0.60399073 0.41137436 -0.84050691 2.5918588e-08 -0.5418008 0
1.0077065 -0.60111958 0.44005179 0.88764262 1.616702e-07 -0.46053299 0
0.38563859 -0.51837987 0.45254397 -0.90534031 8.6543537e-08 -0.42468688 0
0.4083941 -0.52116609 0.41074076 -0.83934677 9.83257e-08 -0.54359627 0
1.0078875 -0.51847064 0.44040093 0.88798004 6.9686543e-08 -0.45988187 0
0.38644275 -0.44081643 0.45061883 -0.90310019 1.084715e-08 -0.42942989 0
0.40791455 -0.44316429 0.41149065 -0.84050679 1.7531941e-07 -0.5418011 0
1.0077198 -0.44256389 0.44007519 0.88746661 -2.5986317e-08 -0.46087211 0
0.38476434 -0.36349726 0.45429122 -0.90805858 2.0635889e-08 -0.41884312 0
0.40755224 -0.36266768 0.41203171 -0.84248388 7.3641893e-08 -0.53872156 0
1.0066622 -0.35877955 0.43815187 0.88462555 1.7802911e-08 -0.46630201 0
0.38567472 -0.28101093 0.45231396 -0.90499115 3.511731e-08 -0.42543042 0
0.40813687 -0.27750078 0.41111258 -0.83932543 -8.6729507e-08 -0.54362935 0
1.0071169 -0.27778122 0.43914077 0.88577074 5.0139239e-08 -0.46412289 0
0.38486749 -0.20212209 0.45397365 -0.90730667 -2.178202e-08 -0.42046955 0
0.4059433 -0.19760519 0.41454101 -0.84626889 -8.4793221e-08 -0.53275609 0
1.0064768 -0.2005095 0.43792021 0.88420051 -6.057757e-08 -0.46710753 0
0.3866463 -0.11862831 0.45023385 -0.90191591 -5.3200338e-08 -0.43191165 0
0.40745157 -0.12012775 0.41217977 -0.84090298 -3.6545657e-08 -0.54118592 0
1.0059875 -0.12171247 0.43695617 0.88291985 1.4182393e-07 -0.4695237 0
0.38485432 -0.041926164 0.45406309 -0.90772134 -9.4184635e-08 -0.41957352 0
0.40670589 -0.037807286 0.41338363 -0.84510398 -4.6832056e-08 -0.53460205 0
1.0071341 -0.044382669 0.43898571 0.88636774 -1.002601e-07 -0.46298176 0
0.38609648 0.041043706 0.45128021 -0.90386564 1.2768157e-07 -0.42781648 0
0.40785557 0.04347083 0.41157892 -0.84105152 1.5998312e-07 -0.54095513 0
1.0084105 0.041911591 0.44150478 0.88966787 1.719916e-07 -0.45660818 0
0.38665611 0.12250234 0.45041338 -0.90210122 1.4602388e-08 -0.43152434 0
0.40806893 0.11798343 0.41124344 -0.84043044 1.1517368e-07 -0.54191953 0
1.0077811 0.12168513 0.44041252 0.88795137 1.6540223e-07 -0.45993733 0
0.38718912 0.20224914 0.44926009 -0.90067989 -1.1021602e-07 -0.43448332 0
0.40720975 0.20237453 0.41258523 -0.84329152 -8.803341e-08 -0.53745639 0
1.0060397 0.2004222 0.43693426 0.88282394 -8.5200611e-08 -0.46970406 0
0.38648903 0.28168866 0.45062602 -0.9026702 -1.8960696e-08 -0.43033302 0
0.40829352 0.2823118 0.41089463 -0.83987468 -9.0145228e-08 -0.54278034 0
1.0080485 0.27762684 0.44094041 0.8890295 -8.5018947e-08 -0.45784986 0
0.38558429 0.35886532 0.452665 -0.90507865 1.2968678e-07 -0.42524421 0
0.40762159 0.36134371 0.41191155 -0.84188682 -2.284629e-08 -0.53965408 0
1.0067981 0.35974187 0.43834922 0.88458991 3.9466933e-08 -0.46636966 0
0.38486254 0.44110626 0.45402017 -0.90741634 9.8333359e-08 -0.4202328 0
0.4082495 0.44193766 0.4109588 -0.83933288 -2.1669042e-08 -0.54361778 0
1.0072111 0.44097617 0.43910295 0.88644361 7.6175212e-08 -0.46283665 0
0.38615245 0.52195245 0.45124149 -0.90340096 -7.1470767e-09 -0.42879689 0
0.40731746 0.51659268 0.41237494 -0.84250933 1.3039319e-08 -0.53868181 0
1.0064111 0.52199358 0.43754324 0.88367975 1.8299058e-08 -0.46809185 0
0.38604045 0.59919918 0.45157367 -0.90431935 -9.8347527e-08 -0.42685661 0
0.40868902 0.60269856 0.41030067 -0.83823073 7.98128e-08 -0.54531574 0
1.0064514 0.60011423 0.43768468 0.88373178 -1.5080499e-07 -0.46799371 0
0.38657743 0.67283314 0.45374373 -0.88516515 0.20672791 -0.41682872 0
0.43729392 0.69371164 0.43665877 -0.20471941 0.96984559 -0.13224775 0
0.52164888 0.69999897 0.43925378 3.9072113e-08 1 1.5705997e-07 0
0.6021291 0.69999915 0.44311503 -4.1460004e-07 1 -4.8769249e-07 0
0.68015969 0.69999909 0.43916833 -1.3459091e-07 1 -7.5565026e-07 0
0.76057053 0.69999939 0.43711844 -2.7376007e-07 1 -1.5757026e-06 0
0.83893394 0.69999892 0.43745479 7.4620152e-07 1 -4.243374e-07 0
0.92034107 0.69999903 0.44019938 -6.0870912e-07 1 1.3764581e-07 0
0.99921238 0.68169606 0.44186872 0.77156848 0.49658513 -0.39759952 0
0.36902052 -0.67973942 0.52370918 -0.84554815 -0.4976888 -0.19327265 0
0.43917006 -0.69999915 0.5194279 5.674932e-07 -1 1.7514292e-07 0
0.52182317 -0.69999897 0.52277446 -1.055651e-06 -1 -8.2023388e-07 0
0.59951848 -0.69999909 0.5205943 -1.7950022e-07 -1 -3.8624665e-07 0
0.67848182 -0.69999886 0.52213562 5.7910813e-07 -1 1.778415e-07 0
0.76052994 -0.69999897 0.51754123 0 -1 0 0
0.84016269 -0.6999988 0.51955974 3.3686121e-07 -1 -1.4825098e-07 0
0.9203825 -0.69999897 0.51934129 1.0451237e-07 -1 9.73113e-08 0
1.0102221 -0.69007248 0.51460665 0.40996608 -0.90438187 -0.11841157 0
1.0428997 -0.67044121 0.54322004 0.98603106 -0.018523837 -0.16552854 0
0.36310735 -0.60128903 0.51722342 -0.97112823 8.7279496e-08 -0.23855828 0
1.0337247 -0.60242832 0.50310934 0.96051425 1.307708e-07 -0.27823097 0
1.0428184 -0.60151708 0.54254669 0.98609459 1.2836496e-07 -0.16618535 0
0.36226457 -0.52055389 0.52093518 -0.97368932 9.2226166e-08 -0.22787994 0
1.0336716 -0.52319461 0.50317883 0.96036923 -7.9584794e-08 -0.27873087 0
1.0428723 -0.51553786 0.5429942 0.98637903 8.6253387e-08 -0.16448815 0
0.3616091 -0.4396874 0.52324814 -0.97536391 2.9927477e-08 -0.22060186 0
1.0342437 -0.43822503 0.50495756 0.96180958 -7.8844167e-08 -0.27371946 0
1.0429161 -0.43466201 0.54306155 0.98624194 -9.5638946e-08 -0.16530856 0
0.36269268 -0.35921016 0.51884317 -0.97223336 -1.2382106e-08 -0.23401332 0
1.0342739 -0.36362112 0.50521928 0.96183217 -5.4320277e-09 -0.27364019 0
1.0435926 -0.35771516 0.54717487 0.98838842 -2.5406177e-07 -0.15194853 0
0.36252829 -0.27943555 0.51944286 -0.97255117 -2.3921963e-08 -0.23268904 0
1.0333203 -0.27995798 0.50193495 0.95942593 -1.0337607e-07 -0.28196076 0
1.0429909 -0.28078881 0.54356372 0.98667729 -1.6623689e-07 -0.16268973 0
0.36268353 -0.19883652 0.51910305 -0.9721784 -3.1486383e-08 -0.23424165 0
1.0339441 -0.19908538 0.50408936 0.96110845 -3.3086195e-08 -0.27617121 0
1.0428352 -0.19430675 0.54278928 0.98634005 -1.4456441e-07 -0.16472195 0
0.36215818 -0.11845966 0.52085769 -0.9735412 -2.2595589e-08 -0.22851147 0
1.0338113 -0.11888919 0.50354761 0.96063894 6.0898877e-08 -0.27780011 0
1.0429839 -0.12087087 0.54373115 0.98686904 -1.0902646e-07 -0.16152242 0
0.36216661 -0.038488589 0.5208329 -0.9737227 -9.4053272e-09 -0.22773717 0
1.033728 -0.040541463 0.50327623 0.96048945 6.4358005e-08 -0.27831635 0
1.0428253 -0.043624822 0.54253781 0.98620415 -1.8662514e-07 -0.16553341 0
0.36221531 0.039087933 0.52071524 -0.97352499 -5.6632858e-09 -0.22858077 0
1.033416 0.036545031 0.50235522 0.95984042 6.9343947e-08 -0.28054667 0
1.0427797 0.046052877 0.54227453 0.98597342 2.6455936e-07 -0.16690283 0
0.36247653 0.11906025 0.51948887 -0.97263896 -3.4473782e-08 -0.23232193 0
1.0336194 0.12146076 0.50291938 0.95990074 2.0362799e-07 -0.28034014 0
1.0429218 0.11834718 0.54318976 0.98645228 9.3501157e-08 -0.16404885 0
0.3622402 0.20129995 0.52098018 -0.97372419 3.9137213e-08 -0.22773051 0
1.0335716 0.20193925 0.5027597 0.9599427 -1.6363396e-08 -0.28019643 0
1.0427527 0.20198858 0.54209989 0.98588085 -2.612849e-07 -0.16744855 0
0.36241108 0.28237718 0.51969051 -0.97284693 5.1130353e-08 -0.23144972 0
1.0335053 0.27549663 0.50247002 0.95996106 -1.6898024e-07 -0.28013375 0
1.0426077 0.27720916 0.54125273 0.98563951 -2.0144292e-07 -0.16886343 0
0.36222664 0.36013165 0.52072674 -0.9734993 3.0496e-08 -0.22868989 0
1.0340769 0.35994637 0.50436515 0.96127737 -6.6846027e-08 -0.27558255 0
1.0428789 0.35921505 0.54291081 0.98623252 3.1000263e-07 -0.16536456 0
0.36245427 0.44469586 0.51970595 -0.97300673 -1.5005355e-08 -0.23077686 0
1.0341814 0.44094631 0.50487506 0.96137553 6.4472756e-09 -0.27524006 0
1.0431242 0.43724573 0.5443455 0.98694092 5.03097e-07 -0.16108286 0
0.36280149 0.51726389 0.51800245 -0.97180748 -5.1621512e-08 -0.23577572 0
1.0337238 0.52061415 0.50325978 0.96023434 -3.7311865e-09 -0.2791951 0
1.0429927 0.51756346 0.54357082 0.98688203 1.181526e-07 -0.16144349 0
0.36266205 0.60169709 0.5187251 -0.97225928 -4.5309037e-08 -0.23390573 0
1.033674 0.60203773 0.50310504 0.96036398 -5.9689111e-09 -0.2787492 0
1.0427265 0.59888232 0.54205656 0.98599547 -1.4409935e-07 -0.1667722 0
0.36957562 0.68019211 0.52096409 -0.86116636 0.46304595 -0.20971633 0
0.43746707 0.69999897 0.52229768 6.221324e-07 1 3.9397014e-07 0
0.51662064 0.69999892 0.52126431 -5.7799349e-07 1 -2.7417511e-07 0
0.60112387 0.69999886 0.5204739 -5.1430085e-08 1 -6.3043103e-08 0
0.67899013 0.69999903 0.51940435 -6.8509917e-07 1 3.2792653e-07 0
0.76234084 0.6999988 0.5209977 -3.6103867e-07 1 2.163834e-07 0
0.83546406 0.69999909 0.51959538 5.8545589e-07 1 -5.7822461e-07 0
0.91802818 0.69999886 0.51764423 1.5088148e-07 1 -6.6236055e-08 0
1.010239 0.68849635 0.51388532 0.49615666 0.85595143 -0.14551891 0
1.0425316 0.67422873 0.54102629 0.98193705 0.086662933 -0.16819392 0
0.36362764 -0.68266016 0.60021335 -0.78646016 -0.61762691 -0.0041743983 0
0.43969509 -0.69999903 0.60090363 5.0259467e-07 -1 7.7323122e-08 0
0.52181637 -0.69999903 0.59913129 -1.3533535e-06 -1 1.9447265e-07 0
0.60039508 -0.69999897 0.5955615 3.3471679e-07 -1 -1.250018e-07 0
0.67926532 -0.69999892 0.5973776 1.8572823e-07 -1 3.6504667e-07 0
0.76079416 -0.69999903 0.59742254 2.038097e-08 -1 -1.6726235e-08 0
0.84242123 -0.69999909 0.59923965 2.0435344e-07 -1 -1.4406038e-08 0
0.9202615 -0.69999874 0.59918594 3.7150707e-07 -1 -6.6970522e-09 0
1.0017643 -0.69999862 0.59957129 -4.7280338e-07 -1 -1.4211997e-07 0
1.0467322 -0.67186517 0.60109365 0.9969933 -0.077451922 0.0023749429 0
0.35305992 -0.59795719 0.59789193 -0.99997002 1.269745e-07 -0.0077369157 0
1.0469769 -0.59812516 0.59928495 0.99999833 2.5683292e-07 -0.0018463429 0
0.35298032 -0.52019781 0.60242975 -0.99997932 3.3800525e-08 0.006440375 0
1.0470749 -0.51911044 0.60235322 0.99998409 1.0667362e-07 0.0056427461 0
0.3529036 -0.44060943 0.60041595 -0.99999934 -6.3691239e-08 0.0012017784 0
1.0470207 -0.43897158 0.59870154 0.99999338 -8.47891e-08 -0.0036348728 0
0.35292032 -0.35955384 0.59899706 -0.99999559 -2.5320299e-08 -0.0029650156 0
1.0470439 -0.35923174 0.60244006 0.99997687 -2.238796e-08 0.0068081026 0
0.35305175 -0.28171465 0.59866697 -0.99999267 6.1918776e-08 -0.0038413822 0
1.0470394 -0.27846101 0.60116374 0.99999458 8.8013124e-08 0.0032986964 0
0.35321218 -0.20176236 0.59678543 -0.99996328 7.393654e-08 -0.0085645728 0
1.0469402 -0.2030942 0.60126603 0.99998963 1.5370034e-07 0.0045636026 0
0.35302621 -0.12310986 0.60183483 -0.99998599 -5.27127e-08 0.0052868719 0
1.0470275 -0.11945191 0.60409713 0.99993342 -7.1517803e-08 0.011538047 0
0.35304645 -0.037939791 0.59806806 -0.99998826 -7.1535695e-08 -0.0048578633 0
1.046981 -0.036651619 0.599186 0.99999774 1.3263053e-08 -0.0021332295 0
0.35306823 0.040875982 0.60317993 -0.99995166 5.9697868e-08 0.0098355608 0
1.0470465 0.040625542 0.60244745 0.99997586 3.2459621e-08 0.0069507696 0
0.35308313 0.11938663 0.6022929 -0.99997795 1.1114325e-07 0.0066442271 0
1.0469394 0.11883142 0.59946924 0.9999994 -1.2341199e-08 -0.0010681876 0
0.35298559 0.19756082 0.60159725 -0.99999374 4.4427111e-08 0.0035310138 0
1.046947 0.20100027 0.59984732 0.99999976 9.0976108e-08 0.00075181213 0
0.35297573 0.28094637 0.60115057 -0.99999321 -7.3804877e-08 0.0037054098 0
1.0469537 0.27904892 0.59880185 0.99999225 2.8384308e-08 -0.0039280611 0
0.35297588 0.36088392 0.59650785 -0.99993664 -4.7410879e-08 -0.011256673 0
1.0469173 0.35876489 0.59903181 0.99999553 -5.9266117e-08 -0.0029852223 0
0.35303643 0.43882275 0.60038519 -0.99999839 -6.8507555e-09 0.0017893517 0
1.0469903 0.43645906 0.60091776 0.99999428 -1.4958496e-07 0.0033978967 0
0.3530924 0.51962936 0.59916562 -0.99999827 -6.9729907e-08 -0.0018475794 0
1.0470041 0.51975513 0.60027462 0.99999905 -1.8245552e-07 0.0013630161 0
0.35294411 0.59911162 0.60196745 -0.99998373 -1.0721577e-07 0.0057118833 0
1.0468805 0.59927505 0.59697801 0.99996263 -2.6703233e-07 -0.0086509055 0
0.36372066 0.68493211 0.60031694 -0.72418904 0.68959635 -0.0026724588 0
0.43947333 0.6999988 0.6018945 5.8218063e-07 1 -1.1181576e-07 0
0.51688397 0.69999903 0.59921461 -6.7350578e-07 1 -6.3544093e-08 0
0.601466 0.6999988 0.60008675 0 1 0 0
0.67991245 0.69999897 0.59960806 -3.3159552e-08 1 4.0058147e-08 0
0.76098013 0.6999988 0.60310715 -3.8813945e-07 1 4.4037873e-07 0
0.83786815 0.69999862 0.60011142 3.0455857e-07 1 -8.3973339e-07 0
0.92017436 0.69999897 0.59912628 5.0151812e-07 1 2.1353135e-07 0
1.0011244 0.69999897 0.60186952 -3.3207616e-07 1 -1.048648e-07 0
1.0465944 0.67433476 0.60031641 0.98821205 0.15298791 0.0056242333 0
0.3689394 -0.68064755 0.67982739 -0.85463202 -0.47713822 0.20480032 0
0.43852431 -0.69999909 0.67739409 6.2268549e-07 -1 -2.0326515e-07 0
0.52239609 -0.69999897 0.68101674 -9.5007999e-07 -1 1.89959e-07 0
0.59953678 -0.69999909 0.67843384 1.1108413e-07 -1 2.466152e-07 0
0.682423 -0.69999886 0.68352681 7.2568184e-08 -1 -8.2357974e-07 0
0.75994563 -0.69999892 0.67856771 2.1230346e-07 -1 -4.9986056e-07 0
0.83984572 -0.69999892 0.68333834 4.0509892e-07 -1 2.0086205e-07 0
0.92412663 -0.69999909 0.68098742 -8.1564977e-08 -1 2.950455e-08 0
1.011366 -0.68901294 0.68489724 0.46769699 -0.87333512 0.13618127 0
1.0429708 -0.67665195 0.65567195 0.98581529 -0.04758342 0.16094729 0
0.36248896 -0.59892851 0.67961317 -0.9732281 1.0653481e-07 0.22984135 0
1.0337383 -0.60332888 0.69668204 0.96055335 0 0.27809587 0
1.0430911 -0.60083985 0.65595537 0.98714209 0 0.15984499 0
0.3625378 -0.5199542 0.68009073 -0.97307849 2.7499016e-08 0.23047408 0
1.0338582 -0.51966196 0.6962992 0.96089727 1.0748233e-07 0.27690533 0
1.0428606 -0.51818347 0.65727186 0.98626661 0 0.16516098 0
0.36269605 -0.4365938 0.68156928 -0.97194016 -2.3797952e-08 0.23522846 0
1.0345588 -0.4393656 0.69371152 0.96283191 9.4573672e-08 0.27010143 0
1.0430601 -0.44117272 0.65605181 0.98688215 0 0.16144253 0
0.36265862 -0.3629097 0.68099213 -0.97232741 -3.1060296e-08 0.23362213 0
1.0334886 -0.35885155 0.69743067 0.95991021 1.1813715e-08 0.28030765 0
1.0429926 -0.36003047 0.65661919 0.98648202 -1.027464e-07 0.16386954 0
0.3627286 -0.27872849 0.68136251 -0.97192055 -1.0325888e-07 0.2353093 0
1.0331378 -0.276539 0.69871682 0.95877451 -4.0720742e-08 0.28416798 0
1.0431198 -0.28019339 0.65578866 0.98708004 -5.7815054e-08 0.16022785 0
0.36262712 -0.19912508 0.6813038 -0.97219473 -1.0814743e-07 0.23417392 0
1.0334587 -0.20164366 0.69786584 0.95935494 -2.3910749e-07 0.2822023 0
1.0431588 -0.19915214 0.655415 0.98730606 1.6615832e-07 0.15882953 0
0.36224601 -0.11842872 0.67941684 -0.97357237 -4.3530523e-08 0.22837891 0
1.034011 -0.11553099 0.69569731 0.96167493 8.4152846e-10 0.2741923 0
1.0430593 -0.11691067 0.65605623 0.98685747 2.8024132e-08 0.16159305 0
0.36268061 -0.038914211 0.68100691 -0.97226745 -1.2274558e-08 0.23387159 0
1.0341359 -0.041497931 0.69536942 0.96124345 2.7253204e-08 0.27570078 0
1.0430418 -0.035948869 0.65616637 0.98680675 1.0336406e-08 0.1619027 0
0.36223438 0.042303424 0.67945373 -0.9735136 7.0210511e-08 0.22862902 0
1.0334197 0.036559854 0.69784123 0.95958692 7.8445282e-08 0.28141251 0
1.04299 0.03371156 0.65654069 0.98643261 -3.2761173e-07 0.16416681 0
0.36245713 0.11978974 0.68014902 -0.97311622 -6.9085551e-09 0.23031449 0
1.0339956 0.11899915 0.6956389 0.96123773 -2.2736604e-07 0.27572098 0
1.0431073 0.11817241 0.6557312 0.98718077 1.4683947e-07 0.15960613 0
0.36198625 0.20080398 0.67868912 -0.97397977 -6.2546668e-08 0.2266348 0
1.0337332 0.2014842 0.696724 0.96029544 -6.300747e-09 0.27898496 0
1.0429204 0.20380092 0.65687811 0.98682952 2.3276067e-07 0.16176379 0
0.36300126 0.27805284 0.68264836 -0.97124547 -2.9637381e-10 0.23808032 0
1.0333161 0.27776754 0.69822168 0.95921856 2.4218139e-07 0.28266549 0
1.0431372 0.28234443 0.6556561 0.9870016 -3.5839928e-08 0.16071051 0
0.36205935 0.36147475 0.67861736 -0.97403014 8.1574669e-08 0.22641824 0
1.03391 0.35758159 0.69616669 0.96089095 1.4951108e-07 0.27692708 0
1.0428135 0.36406425 0.65751648 0.98636156 -8.1071519e-08 0.16459318 0
0.36292693 0.44363451 0.68222457 -0.97140402 3.363682e-08 0.23743275 0
1.0336276 0.43580991 0.69693369 0.96035975 -1.5582313e-07 0.27876347 0
1.042971 0.43762922 0.65670544 0.98675305 -2.6887536e-08 0.16222967 0
0.3623679 0.51917267 0.67951781 -0.97319853 -2.2181128e-08 0.22996654 0
1.0342835 0.51819026 0.69488674 0.9621734 -2.2443776e-07 0.27243766 0
1.0426749 0.51743692 0.65850735 0.98572475 -2.8084093e-08 0.16836479 0
0.36214927 0.59985512 0.67888111 -0.97385687 -7.8218676e-08 0.22716241 0
1.0340759 0.59763324 0.69532168 0.96186453 -1.3828163e-08 0.2735264 0
1.042888 0.59656233 0.65707606 0.98625976 -1.288073e-08 0.1652021 0
0.36989614 0.68100733 0.67935121 -0.82805175 0.52326202 0.20131341 0
0.43727422 0.69999915 0.67941409 6.6100438e-07 1 5.2357883e-08 0
0.51830363 0.69999892 0.68113977 -6.5811884e-07 1 1.7381193e-07 0
0.60006243 0.69999886 0.67761397 -9.0242573e-08 1 3.0317818e-08 0
0.67734736 0.69999897 0.67911816 -5.7890975e-07 1 -5.2188426e-07 0
0.75999731 0.69999892 0.67927808 1.5775942e-07 1 -5.9056072e-07 0
0.84132606 0.69999892 0.68245244 7.8120684e-07 1 1.040965e-06 0
0.92120481 0.69999903 0.68065 1.1714007e-08 1 2.6575806e-08 0
1.0108175 0.69010925 0.68496442 0.43345597 0.8922829 0.12628172 0
1.0429667 0.670596 0.65628868 0.98663181 0.015630566 0.16221392 0
0.3868075 -0.67656773 0.74575251 -0.88240743 -0.22509749 0.4131445 0
0.43312022 -0.69241393 0.76580477 -0.25864437 -0.95163071 0.16583748 0
0.52019554 -0.69999892 0.76410496 6.1683096e-08 -1 -3.1930446e-07 0
0.60026228 -0.69999868 0.76069427 -5.054294e-07 -1 1.3258993e-06 0
0.67964876 -0.69999892 0.75946331 -3.7968479e-07 -1 1.3817463e-06 0
0.75869983 -0.69999874 0.76047224 1.2088108e-06 -1 1.0104415e-06 0
0.84263563 -0.69999874 0.75939536 3.3072274e-07 -1 4.4822622e-07 0
0.91894329 -0.69999897 0.75589854 -6.0652872e-07 -1 -1.7172924e-07 0
0.99890679 -0.68218327 0.75555623 0.72600335 -0.58063304 0.36848927 0
0.38592038 -0.59772879 0.74813104 -0.90371984 1.1724421e-07 0.42812434 0
0.40752509 -0.60308278 0.78787714 -0.84140742 1.0724622e-07 0.54040128 0
1.0075389 -0.60080916 0.76004732 0.88706291 1.2792491e-07 0.46164852 0
0.38573408 -0.52166593 0.7478689 -0.90480661 1.7891988e-08 0.42582268 0
0.40723056 -0.51966864 0.78744245 -0.84338069 -4.9640693e-08 0.5373165 0
1.007967 -0.51922423 0.75949371 0.88826942 2.8636519e-08 0.45932275 0
0.38634327 -0.43949109 0.7490989 -0.90288758 -1.0973703e-07 0.42987669 0
0.40704516 -0.4433369 0.78719741 -0.84386683 -7.6198369e-08 0.53655267 0
1.0061222 -0.43989179 0.76279551 0.88323081 -8.2329628e-08 0.46893847 0
0.38607666 -0.36430353 0.74849308 -0.90433729 -4.7664297e-08 0.42681846 0
0.40679368 -0.36738259 0.78679895 -0.84381849 -3.3282465e-08 0.53662878 0
1.0077338 -0.35844877 0.75985694 0.88771194 1.3919339e-08 0.46039921 0
0.38629118 -0.2809107 0.74905211 -0.90293282 2.4410912e-08 0.42978182 0
0.40698403 -0.28178704 0.7870844 -0.84267271 -1.1462413e-07 0.5384261 0
1.0059462 -0.28154483 0.76338398 0.88233244 1.0543788e-07 0.47062668 0
0.38614675 -0.20419413 0.74864185 -0.90384877 -5.3290158e-08 0.42785224 0
0.4070394 -0.19378018 0.78715873 -0.84274858 -1.4779462e-08 0.53830737 0
1.0070099 -0.20234631 0.7611652 0.88542759 1.316486e-08 0.46477738 0
0.38677755 -0.11911337 0.74982828 -0.90151948 -7.303121e-08 0.43273857 0
0.40746671 -0.11973251 0.78785467 -0.84110761 8.078927e-08 0.54086781 0
1.0060109 -0.12075239 0.76296663 0.88254082 -1.3414359e-07 0.47023576 0
0.38688633 -0.040239986 0.7504192 -0.90148562 -9.369306e-08 0.43280917 0
0.40737942 -0.039043896 0.78768772 -0.84193671 4.3499007e-08 0.53957635 0
1.0082492 -0.0390319 0.75881916 0.88861907 -1.4852652e-07 0.45864612 0
0.38607472 0.038075466 0.74844438 -0.90362358 1.3932546e-07 0.42832747 0
0.40847969 0.038954828 0.78941274 -0.83915555 -4.2907502e-08 0.54389143 0
1.0076226 0.041008234 0.75989902 0.88776988 1.4221035e-07 0.46028757 0
0.38550141 0.1166331 0.7474553 -0.90527105 5.6317923e-08 0.42483446 0
0.40661776 0.12358895 0.78651583 -0.84403473 2.1336833e-08 0.5362885 0
1.0055943 0.12020307 0.7639991 0.88158172 7.5290636e-08 0.47203141 0
0.38534424 0.20168914 0.74689645 -0.90633732 -1.3574419e-07 0.42255503 0
0.40829411 0.19309144 0.78909701 -0.8387571 1.0944642e-08 0.54450572 0
1.0071621 0.19762726 0.7609362 0.88551885 -1.6745511e-07 0.46460345 0
0.38631812 0.28024769 0.74893129 -0.90358883 -6.4261982e-08 0.42840081 0
0.40685341 0.27703163 0.78685486 -0.84375209 4.6627044e-08 0.53673309 0
1.0066974 0.28027591 0.76176667 0.88457215 -5.3923532e-08 0.46640348 0
0.38667125 0.36207512 0.74959791 -0.9024967 5.0334624e-08 0.4306967 0
0.40769905 0.36154976 0.78820115 -0.841425 -5.0930396e-08 0.54037386 0
1.0079676 0.35931179 0.75934142 0.88813943 -1.3449718e-09 0.45957422 0
0.38587943 0.4384436 0.74808979 -0.90474635 8.5872927e-08 0.42595059 0
0.40731928 0.44277388 0.78758204 -0.84296125 -7.9228371e-08 0.53797418 0
1.0077572 0.44027191 0.75988042 0.88728344 -1.4134009e-08 0.46122444 0
0.38523892 0.5167551 0.74681687 -0.90699404 -2.8930105e-08 0.42114335 0
0.40773404 0.52001595 0.78827399 -0.83959138 -3.7839431e-08 0.54321837 0
1.0070744 0.51937383 0.76103431 0.88569587 -5.4207753e-08 0.46426585 0
0.38499662 0.6007697 0.74615818 -0.90677726 -1.465524e-07 0.42161 0
0.40811458 0.60358548 0.78884637 -0.83952832 -2.6801054e-08 0.54331589 0
1.0067176 0.60148531 0.76182234 0.88512152 -9.4068156e-08 0.46535993 0
0.38671923 0.67770851 0.74632525 -0.88294131 0.2181934 0.41569966 0
0.43436733 0.69269025 0.76378059 -0.22460762 0.96353728 0.1454211 0
0.5207808 0.69999921 0.76127368 1.7520419e-07 1 -3.722824e-08 0
0.59759283 0.6999988 0.76067626 -7.3865851e-07 1 5.549374e-07 0
0.68040234 0.69999886 0.7612415 -3.4825945e-07 1 1.1181896e-06 0
0.7572524 0.6999988 0.75890243 9.9375075e-07 1 1.3587406e-06 0
0.84199238 0.69999909 0.75634158 4.2327633e-07 1 4.7433178e-07 0
0.91850698 0.69999897 0.75919962 -5.1319665e-07 1 -4.4539388e-07 0
0.99671966 0.68338615 0.75816184 0.68499953 0.63452792 0.35798028 0
0.44985476 -0.67949086 0.83237559 -0.68059975 -0.36264062 0.63661271 0
0.51144791 -0.69382834 0.84835243 -0.13894621 -0.9741025 0.17837656 0
0.59760255 -0.69999892 0.84181404 3.4861296e-07 -1 -5.5782903e-07 0
0.68089032 -0.69999892 0.83920377 -3.7750009e-08 -1 5.9062145e-08 0
0.76222837 -0.69999903 0.83970612 3.2431632e-08 -1 -2.0639992e-07 0
0.84072566 -0.69999886 0.84268731 -5.421702e-07 -1 -5.063992e-07 0
0.92412901 -0.68539882 0.84654367 0.48788872 -0.69101083 0.53335589 0
0.97140342 -0.6760301 0.81541121 0.76444793 -0.21527269 0.60768175 0
0.44322821 -0.60047144 0.83274251 -0.74085695 6.7089743e-09 0.67166287 0
0.48594484 -0.59838915 0.87399411 -0.61373228 -1.6273606e-07 0.78951418 0
0.93221611 -0.6006456 0.85801399 0.66913587 3.9635783e-08 0.7431401 0
0.97134006 -0.60040236 0.81714141 0.78007179 -4.2218755e-08 0.6256901 0
0.44835502 -0.51915973 0.83850354 -0.72643101 -5.1138374e-09 0.68723935 0
0.48731169 -0.52395368 0.87507105 -0.61284 3.2763303e-08 0.79020697 0
0.93402481 -0.51740927 0.85646045 0.67358541 -3.533811e-09 0.7391094 0
0.97179306 -0.51798016 0.81659967 0.78150493 -3.1699454e-08 0.62389904 0
0.44723246 -0.44058427 0.83726025 -0.72980255 -4.0617998e-08 0.68365794 0
0.48742211 -0.43754172 0.87515235 -0.61184305 5.475335e-08 0.79097921 0
0.93357587 -0.4394013 0.85679245 0.67268169 -4.4166718e-08 0.739932 0
0.97164714 -0.442736 0.81679833 0.78072935 -1.6294456e-08 0.62486929 0
0.44719607 -0.3576389 0.83725637 -0.72865927 -6.8210007e-08 0.68487638 0
0.48627457 -0.35922053 0.87426382 -0.61472464 -2.2249109e-08 0.78874177 0
0.93461102 -0.36129111 0.85577393 0.67636395 -7.8161513e-08 0.73656756 0
0.97222316 -0.35961735 0.81612533 0.78347516 -2.1124967e-08 0.62142307 0
0.44400558 -0.27952486 0.83371502 -0.73827523 -1.2004693e-07 0.67449957 0
0.4863981 -0.28108048 0.87435496 -0.61418581 -1.5291887e-07 0.7891615 0
0.93398261 -0.28168833 0.85634172 0.67497516 -1.9677256e-07 0.73784053 0
0.97279638 -0.27958784 0.81535286 0.78574455 -4.3590195e-08 0.61855108 0
0.44560495 -0.20019473 0.83542931 -0.73365986 -8.4664599e-08 0.67951691 0
0.48760435 -0.19992176 0.87529063 -0.61080724 -1.8867101e-07 0.79177934 0
0.93451172 -0.19927843 0.85592198 0.67618185 -1.4574164e-07 0.73673481 0
0.97340631 -0.2006875 0.81458372 0.78657442 3.3337084e-08 0.61749548 0
0.44638428 -0.12183755 0.83647031 -0.73116624 -9.31702e-08 0.68219924 0
0.48663786 -0.12377179 0.87454301 -0.61357445 6.9786665e-08 0.78963697 0
0.93711579 -0.11958516 0.8535549 0.68278092 -7.660897e-08 0.73062313 0
0.97276872 -0.11903192 0.81536293 0.78429908 -7.4161527e-08 0.62038285 0
0.44431823 -0.042712085 0.83400702 -0.7382524 -1.0073799e-07 0.67452449 0
0.48756129 -0.039255016 0.87526447 -0.61203074 1.0422819e-07 0.79083389 0
0.93290126 -0.03982459 0.85743976 0.67107731 -1.1064972e-07 0.74138743 0
0.9718194 -0.039797693 0.81654465 0.78137654 -9.8751947e-08 0.62405974 0
0.44661945 0.039396364 0.83666784 -0.7304408 -7.767504e-08 0.68297595 0
0.48683625 0.039288905 0.87469119 -0.61302471 -9.3716665e-08 0.79006368 0
0.9351666 0.041066818 0.8552137 0.67852384 -7.5428638e-08 0.73457843 0
0.97288454 0.036606185 0.81520003 0.78483909 3.1233046e-08 0.6196996 0
0.44778326 0.12049894 0.83766645 -0.72787386 4.1304137e-08 0.68571115 0
0.487903 0.11719187 0.87552613 -0.60954219 -7.9290793e-08 0.79275358 0
0.93589187 0.12416473 0.85461444 0.68014914 7.5126124e-08 0.73307371 0
0.97247815 0.11954985 0.81570715 0.78343624 -2.1231294e-08 0.62147212 0
0.44797423 0.19922096 0.83808881 -0.72661555 3.8787416e-08 0.68704426 0
0.48588553 0.19368792 0.87395626 -0.6147486 -1.3484453e-08 0.78872317 0
0.93411642 0.19765426 0.85628968 0.675228 -3.0850613e-09 0.73760903 0
0.97238785 0.2039322 0.81591278 0.78264034 -2.8786181e-08 0.62247419 0
0.44760698 0.27861336 0.83767349 -0.72851753 -6.6239238e-08 0.68502712 0
0.48665959 0.27346894 0.87456393 -0.61360615 3.5057692e-08 0.78961229 0
0.93378514 0.28143883 0.85656583 0.67407697 -1.2895414e-07 0.73866105 0
0.97321767 0.27640405 0.81477654 0.78517979 7.3688568e-08 0.61926788 0
0.44799525 0.36130029 0.83820522 -0.72659165 -3.0616555e-08 0.68706954 0
0.48731798 0.3561669 0.87507761 -0.6115334 8.4141078e-08 0.79121858 0
0.93285269 0.35989201 0.85748053 0.67088258 -1.0395514e-08 0.74156356 0
0.97249776 0.35699865 0.81571221 0.78356433 5.7766023e-08 0.62131071 0
0.44809657 0.4380067 0.83829981 -0.72641331 3.7433123e-09 0.68725806 0
0.48710901 0.43674383 0.87490505 -0.6124934 8.3865781e-10 0.79047573 0
0.93618482 0.44208482 0.85437185 0.68071365 8.7624933e-08 0.73254955 0
0.97381133 0.43850347 0.81409281 0.78691465 -7.7041996e-08 0.61706191 0
0.44439954 0.51830065 0.83422434 -0.73725301 2.8930014e-09 0.67561674 0
0.48686469 0.52251375 0.87472552 -0.61373049 -1.3079451e-08 0.78951555 0
0.93288368 0.52073818 0.85732079 0.67083687 1.3358319e-10 0.74160498 0
0.97331494 0.51961666 0.81465268 0.78603834 -1.182752e-07 0.61817771 0
0.44697288 0.59667706 0.83665144 -0.73016435 2.4799162e-08 0.68327147 0
0.48692048 0.5955264 0.87476796 -0.61241186 0 0.79053897 0
0.93235147 0.60024291 0.85771549 0.67053717 -5.4770489e-08 0.74187595 0
0.97212386 0.60269481 0.81625313 0.78246582 6.186734e-08 0.62269348 0
0.44719177 0.68031716 0.82979321 -0.66729856 0.43482351 0.60468262 0
0.5126493 0.69522393 0.84407473 -0.12058952 0.98058432 0.15463683 0
0.60065895 0.69999903 0.83910006 2.1405253e-07 1 -4.6828862e-07 0
0.68070221 0.69999868 0.83918554 -1.6208929e-07 1 1.9482016e-09 0
0.75741857 0.69999892 0.84080064 6.2881628e-10 1 -2.1594356e-07 0
0.84047824 0.69999892 0.84280246 -1.3716671e-07 1 -4.4166774e-07 0
0.92190295 0.68809462 0.84377748 0.38163048 0.82405716 0.41867399 0
0.97087944 0.67402184 0.81586379 0.7657423 0.21187404 0.60724634 0
0.52835464 -0.67789787 0.89862937 -0.48228708 -0.2905333 0.82643187 0
0.60146624 -0.68293333 0.9206444 -0.22674237 -0.62410337 0.74771839 0
0.67999572 -0.68569219 0.93123686 -0.040283065 -0.73144275 0.68071198 0
0.75876111 -0.68460006 0.92719096 0.12814662 -0.6821121 0.7199316 0
0.83644438 -0.68200725 0.91135484 0.35122851 -0.49268275 0.79617971 0
0.89227033 -0.67511362 0.88871306 0.54677033 -0.15210237 0.82335114 0
0.52547687 -0.59956783 0.89984864 -0.50264901 7.1839857e-08 0.86449063 0
0.59924752 -0.59903765 0.93187445 -0.29081452 1.3041696e-07 0.95677942 0
0.67955959 -0.60072589 0.94641733 -0.059298776 2.8099311e-08 0.99824023 0
0.76104122 -0.60180855 0.94158345 0.17620726 1.5167731e-07 0.98435313 0
0.83975512 -0.6004504 0.91735375 0.40285653 1.5030439e-07 0.91526312 0
0.89164424 -0.59913361 0.89004576 0.55237472 2.2661087e-08 0.83359593 0
0.52454656 -0.51899946 0.89941472 -0.50567758 1.0948735e-07 0.86272258 0
0.59607828 -0.51872486 0.93094486 -0.30041561 1.238155e-07 0.95380843 0
0.67946249 -0.52166408 0.94640082 -0.058488797 1.7148172e-09 0.99828809 0
0.75661194 -0.52191341 0.94224399 0.16267702 5.5664859e-08 0.98667938 0
0.84078234 -0.5205726 0.91704756 0.40562996 1.4725636e-08 0.91403735 0
0.89206868 -0.52158308 0.88974053 0.55284131 -4.8323767e-09 0.83328658 0
0.5259577 -0.43665472 0.90020281 -0.5009107 2.9637187e-08 0.86549902 0
0.60196424 -0.4401994 0.93280935 -0.28270009 2.1549431e-08 0.95920837 0
0.68132627 -0.43744132 0.94648159 -0.053737488 -1.2578986e-08 0.99855512 0
0.75887305 -0.43877518 0.94191527 0.16901746 -2.7773552e-08 0.98561299 0
0.84127545 -0.43931249 0.91673273 0.40734595 -1.2755289e-07 0.91327393 0
0.89449877 -0.44030043 0.88812923 0.5598557 -3.241443e-08 0.82859015 0
0.52667344 -0.35730046 0.90066814 -0.49968147 -4.9783502e-08 0.86620921 0
0.59969729 -0.36019242 0.93217617 -0.28887355 -1.1367992e-07 0.9573673 0
0.67765701 -0.3591637 0.94635969 -0.063813306 -3.8506023e-08 0.99796182 0
0.7617138 -0.36156702 0.94136196 0.17690259 -8.9604598e-08 0.98422837 0
0.84139878 -0.3601692 0.91660124 0.40757397 -1.5094571e-07 0.91317213 0
0.89141268 -0.35956749 0.89017403 0.55002397 -1.8185763e-07 0.83514887 0
0.52745134 -0.28039232 0.90104532 -0.49803331 -9.5518814e-08 0.86715788 0
0.5976882 -0.27816787 0.93150723 -0.2954784 -2.1482261e-07 0.95534939 0
0.68104643 -0.27647665 0.94647622 -0.055606298 -3.7046384e-08 0.99845272 0
0.75934547 -0.27917776 0.94184172 0.17124367 -1.8993283e-07 0.98522866 0
0.84048343 -0.27625838 0.91718012 0.40544531 -1.4899793e-07 0.9141193 0
0.89189243 -0.2814109 0.88985252 0.55237198 -2.9387772e-07 0.83359772 0
0.52847439 -0.2007173 0.90167373 -0.4943845 -1.4681022e-07 0.86924326 0
0.59969944 -0.1987045 0.93207836 -0.28905487 -2.0915749e-07 0.95731252 0
0.67809409 -0.20199837 0.94632798 -0.063434348 -7.1504921e-08 0.99798596 0
0.76172048 -0.19991338 0.94138002 0.17810328 -1.4971778e-07 0.98401177 0
0.83914012 -0.20051251 0.91761476 0.40191194 -1.7483336e-07 0.91567826 0
0.89273119 -0.19773902 0.88927984 0.55337715 -6.6460103e-08 0.8329308 0
0.5260511 -0.11934996 0.90025806 -0.50165272 -9.2232071e-08 0.86506915 0
0.60158503 -0.1212936 0.93266249 -0.28362387 -3.1105083e-09 0.95893556 0
0.67970461 -0.11829645 0.94638687 -0.057752512 -1.0354373e-07 0.99833095 0
0.7615034 -0.11796179 0.94145036 0.17707714 -5.2608527e-08 0.98419702 0
0.83782023 -0.11909975 0.91817033 0.39708078 -1.1156826e-07 0.91778374 0
0.89236593 -0.1185786 0.88955009 0.55193812 1.0689048e-07 0.83388507 0
0.52289355 -0.041984439 0.89844453 -0.50978065 -1.2031768e-07 0.86030442 0
0.60030478 -0.039079592 0.93220311 -0.28795949 -1.7936928e-08 0.95764261 0
0.68082923 -0.038637813 0.94648945 -0.054759774 -9.9116065e-08 0.99849957 0
0.76140392 -0.040654246 0.94151801 0.1780601 -6.4932934e-08 0.98401964 0
0.83891672 -0.040743098 0.91778404 0.40031737 -8.2170878e-08 0.91637665 0
0.89307761 -0.038794052 0.88906068 0.55516177 7.7175933e-08 0.83174241 0
0.52574033 0.042249613 0.90005773 -0.50189435 1.73e-07 0.8649289 0
0.60051531 0.039843574 0.93234754 -0.28678885 3.8029835e-08 0.95799381 0
0.67839229 0.038935456 0.9461773 -0.062357549 5.0419469e-08 0.99805391 0
0.75997347 0.038282596 0.9417116 0.1718623 9.3564225e-08 0.98512095 0
0.84149259 0.039113581 0.91667932 0.40785933 1.3538089e-07 0.91304475 0
0.89486092 0.044613246 0.88790429 0.56050611 4.4534105e-09 0.82815033 0
0.52760118 0.12000512 0.90123576 -0.49700794 2.7471971e-08 0.86774594 0
0.5979026 0.11977258 0.93151873 -0.29488039 1.9781032e-08 0.95553416 0
0.68192881 0.11911596 0.94649392 -0.051966839 8.0989992e-08 0.99864876 0
0.75993007 0.11940486 0.94174176 0.17089061 1.3135543e-07 0.98528999 0
0.83944255 0.12141351 0.91754955 0.40152034 5.26782e-08 0.91585004 0
0.89340365 0.11863703 0.88884646 0.55686951 4.518451e-08 0.83059996 0
0.52488935 0.19864124 0.89955384 -0.5043267 -2.9442302e-07 0.86351293 0
0.59569484 0.20225695 0.93084216 -0.30083078 -1.1916151e-07 0.95367754 0
0.68232077 0.20076907 0.94650215 -0.050352138 -1.7216726e-07 0.99873155 0
0.75956535 0.20144343 0.94171745 0.17162047 -1.5159769e-07 0.98516309 0
0.83994359 0.19921632 0.91726768 0.40368417 -2.0470887e-07 0.91489834 0
0.89230585 0.20255442 0.88956028 0.55466902 -2.0476318e-07 0.83207107 0
0.52497816 0.27974266 0.89958996 -0.50380164 -1.6914515e-07 0.86381936 0
0.60030866 0.28179267 0.93231696 -0.28829721 -9.4420351e-08 0.95754099 0
0.67972565 0.28196025 0.94628567 -0.057334248 -2.6660888e-07 0.99835503 0
0.75985277 0.28065488 0.94176894 0.17269804 -2.4296745e-07 0.9849748 0
0.84197354 0.2791121 0.91651654 0.40901521 -1.3524091e-07 0.91252756 0
0.8948456 0.27943316 0.88786536 0.5595904 -1.9155661e-07 0.82876927 0
0.52713215 0.36004907 0.9008503 -0.49913245 3.4502087e-08 0.86652571 0
0.60033309 0.3600255 0.93230379 -0.28704193 8.7647658e-09 0.95791799 0
0.67992967 0.36141571 0.9464761 -0.057930045 -1.1339044e-07 0.99832064 0
0.76395226 0.36259869 0.9409554 0.18440598 -7.394787e-09 0.98285013 0
0.84116 0.35921669 0.91683441 0.40712202 3.4255461e-08 0.91337383 0
0.89479035 0.3615675 0.88793886 0.55949569 -3.8688889e-08 0.82883328 0
0.52992809 0.43871555 0.90265673 -0.49060395 4.6641777e-08 0.87138271 0
0.59924746 0.44101921 0.9319607 -0.2906549 1.5229235e-08 0.95682794 0
0.6767984 0.44199735 0.94625026 -0.067070156 0 0.9977482 0
