# .PCD v0.7 - Point Cloud Data file format
VERSION 0.7
FIELDS x y z normal_x normal_y normal_z curvature
SIZE 4 4 4 4 4 4 4
TYPE F F F F F F F
COUNT 1 1 1 1 1 1 1
WIDTH 534
HEIGHT 1
VIEWPOINT 0 0 0 1 0 0 0
POINTS 534
DATA ascii
0.67335063 -0.70000005 0.38889962 3.3064964e-07 -1 3.7526573e-07 0
0.75149107 -0.70000052 0.38090962 1.7981412e-07 -1 -6.8165015e-08 0
0.84778512 -0.70000029 0.37955776 -2.9627927e-07 -1 -2.9487907e-08 0
0.92952895 -0.70000017 0.38711122 -7.8344624e-07 -1 4.0927793e-07 0
0.66123623 -0.65075731 0.38239869 -0.40113547 -0.022651143 -0.91573858 0
0.75295967 -0.65171719 0.35730448 -0.13631466 -0.033552989 -0.99009717 0
0.84939837 -0.65164703 0.35767651 0.14313902 -0.031967979 -0.98918617 0
0.936984 -0.65021479 0.38136575 0.39504233 8.1749157e-08 -0.91866291 0
0.66083193 -0.55251944 0.38222811 -0.40194109 6.4799778e-08 -0.91566557 0
0.75248104 -0.55085033 0.35686392 -0.13777024 8.3874745e-08 -0.99046421 0
0.84891713 -0.55060041 0.3569153 0.14224865 8.4406878e-08 -0.98983097 0
0.94061649 -0.54973423 0.38275754 0.40492129 8.3826102e-08 -0.91435152 0
0.66236198 -0.4490743 0.38161716 -0.39711586 -8.4356209e-08 -0.91776854 0
0.75033832 -0.44858512 0.35707411 -0.14342506 -3.2286547e-09 -0.98966116 0
0.84787905 -0.44894007 0.35684255 0.13877301 -4.7868878e-09 -0.9903242 0
0.93923306 -0.44955313 0.38229671 0.40149477 1.1573726e-09 -0.91586131 0
0.66013366 -0.34973463 0.38257703 -0.40358561 3.4693247e-08 -0.91494185 0
0.74658847 -0.35232025 0.35775697 -0.15406542 6.6899844e-08 -0.98806065 0
0.85229778 -0.35286358 0.35745582 0.15093417 4.0647713e-08 -0.98854381 0
0.93924958 -0.34900483 0.38219902 0.40094411 9.7668647e-08 -0.91610247 0
0.65908927 -0.25244001 0.38292757 -0.40694761 1.528318e-07 -0.91345149 0
0.74944615 -0.2522513 0.35713279 -0.14516811 1.1173805e-07 -0.989407 0
0.84635633 -0.25152606 0.35668626 0.13420978 1.8962876e-07 -0.99095291 0
0.93784016 -0.2497341 0.38157094 0.39755857 1.6124514e-07 -0.91757679 0
0.66232353 -0.14965358 0.38152677 -0.39744586 -5.0736183e-08 -0.91762561 0
0.7492137 -0.14997768 0.35714012 -0.14621273 -2.4018125e-09 -0.98925316 0
0.85065132 -0.14916797 0.35726348 0.14604273 2.532601e-08 -0.98927826 0
0.93678319 -0.15107776 0.38123465 0.39397842 -4.7623296e-08 -0.91911966 0
0.6604287 -0.051025152 0.38245204 -0.40252829 -8.3141089e-08 -0.91540754 0
0.75012201 -0.050543487 0.35718074 -0.14366128 5.2327107e-09 -0.98962688 0
0.85342079 -0.049358178 0.3574934 0.15456118 -1.3355572e-08 -0.98798323 0
0.93835586 -0.048785482 0.38180792 0.39917412 -1.0355207e-07 -0.91687512 0
0.65958416 0.050450388 0.38276231 -0.40467846 1.7269743e-07 -0.91445905 0
0.74863273 0.052406717 0.35731393 -0.14817405 4.7335028e-08 -0.98896128 0
0.8498047 0.049476128 0.35705009 0.14425154 3.966732e-08 -0.98954099 0
0.93912369 0.050765511 0.3821103 0.40135619 8.5134346e-08 -0.91592205 0
0.66118628 0.15322585 0.38213933 -0.4008247 6.5836652e-08 -0.9161548 0
0.75072062 0.15038444 0.3570337 -0.1417845 4.3207887e-08 -0.98989761 0
0.85035437 0.14954773 0.35712567 0.14562258 1.0757617e-07 -0.98934025 0
0.93785012 0.1520502 0.38165763 0.39680013 -3.5844256e-08 -0.91790509 0
0.65831 0.25147611 0.38341203 -0.40828887 4.6778982e-08 -0.91285282 0
0.75021851 0.25048018 0.3570551 -0.14360201 1.583347e-07 -0.98963553 0
0.84901607 0.25191435 0.35699812 0.14070936 1.8318418e-07 -0.99005091 0
0.93830091 0.24971177 0.38179839 0.39849472 1.5330097e-07 -0.91717058 0
0.66152668 0.34608841 0.3819212 -0.39907181 1.5510912e-07 -0.91691965 0
0.75103021 0.35132563 0.35685384 -0.1414142 1.1435497e-07 -0.98995054 0
0.85039872 0.34902921 0.3571851 0.14511026 5.9532887e-08 -0.98941553 0
0.937419 0.34894079 0.38148269 0.39608076 1.9285841e-07 -0.91821569 0
0.6611864 0.45098531 0.38207024 -0.40081769 1.2680877e-07 -0.9161579 0
0.74796844 0.45234153 0.35744861 -0.15140671 3.0514229e-08 -0.98847157 0
0.85211855 0.45101368 0.35736126 0.15114781 -4.9931694e-09 -0.98851115 0
0.94049156 0.45089105 0.38278809 0.40395424 5.3892542e-08 -0.91477913 0
0.6654135 0.55086595 0.38020635 -0.38822186 -6.6107795e-08 -0.92156595 0
0.74802601 0.55201578 0.35749477 -0.15014471 -5.7446833e-08 -0.98866403 0
0.84879774 0.55105668 0.3569344 0.14043574 -1.1223018e-07 -0.99008977 0
0.93978274 0.55120629 0.38252291 0.40306744 -5.663334e-08 -0.91517031 0
0.66255075 0.65187943 0.38151073 -0.395854 -1.4613018e-07 -0.91831344 0
0.74740481 0.64949208 0.35754323 -0.15244474 -5.3930506e-08 -0.98831201 0
0.84988838 0.64959842 0.35698843 0.14364347 -1.1975133e-07 -0.98962951 0
0.94002599 0.65008545 0.38267592 0.40389806 0.0040092701 -0.91479522 0
0.67364359 0.70000029 0.38644528 -3.0671652e-07 1 1.0127254e-06 0
0.75473648 0.69999999 0.37766573 3.3241602e-07 1 1.8427569e-08 0
0.84515029 0.69999957 0.37883011 -4.5935593e-07 1 -3.1699358e-08 0
0.92695004 0.70000023 0.38941485 -2.0106663e-08 1 4.1060574e-07 0
0.57104087 -0.70000011 0.47018224 2.119265e-07 -1 8.3898961e-08 0
0.64922643 -0.69999844 0.44558734 1.7573009e-07 -1 4.0289024e-07 0
0.74548542 -0.69999915 0.44122306 7.4859173e-08 -1 4.7530011e-07 0
0.84941071 -0.69999897 0.44602466 -3.1411428e-08 -1 4.2763867e-07 0
0.94973761 -0.69999862 0.44759852 -3.3432315e-07 -1 3.6346813e-07 0
1.0288771 -0.70000005 0.46877441 -1.4766476e-07 -1 1.5178499e-07 0
0.55519837 -0.65107673 0.45599356 -0.70863122 -0.0094502168 -0.7055158 0
0.63048166 -0.66874462 0.43235624 -0.45711848 -0.5354445 -0.71017033 0
0.75071234 -0.70000011 0.46349469 -4.1394099e-08 -1 2.9104183e-07 0
0.84710175 -0.70000005 0.46498677 1.5669038e-07 -1 4.5560085e-08 0
0.96781945 -0.67205918 0.43439215 0.44087282 -0.59014308 -0.67628568 0
1.0449895 -0.65054351 0.4562816 0.70872957 -0.015178513 -0.70531696 0
0.55399853 -0.55072296 0.45692277 -0.7117328 1.5697179e-08 -0.70245028 0
0.61063647 -0.55008566 0.40845755 -0.54331028 1.6582632e-08 -0.83953196 0
0.98821467 -0.54752946 0.40772653 0.54034066 8.1779895e-08 -0.84144634 0
1.043716 -0.54967183 0.45437619 0.70455182 -1.2857461e-08 -0.70965254 0
0.55361485 -0.45117447 0.45687082 -0.71190953 3.2245069e-08 -0.70227122 0
0.61153001 -0.4478102 0.40790758 -0.53977823 -3.9966011e-08 -0.84180725 0
0.98794854 -0.44733322 0.40755922 0.53903025 5.6282033e-08 -0.84228635 0
1.0455582 -0.44987801 0.45638028 0.70978588 -1.5264634e-08 -0.70441753 0
0.55406111 -0.34993228 0.45671168 -0.71119803 1.1582883e-08 -0.70299172 0
0.61217242 -0.35458687 0.40745384 -0.54059279 1.4976852e-08 -0.84128439 0
0.98757458 -0.35384032 0.40730816 0.53914875 6.2918133e-08 -0.84221053 0
1.0477924 -0.35097957 0.4587152 0.71651047 -2.8313293e-08 -0.69757634 0
0.55536324 -0.25086913 0.45528886 -0.70645285 -2.4378004e-08 -0.7077601 0
0.61218756 -0.24966834 0.40745759 -0.53968114 5.4689377e-08 -0.84186953 0
0.98753816 -0.25276229 0.4072789 0.53897864 2.8921164e-08 -0.84231949 0
1.0446001 -0.25080636 0.45530665 0.7064696 2.5552911e-08 -0.70774341 0
0.55650055 -0.15013544 0.45404258 -0.70376426 1.3676655e-08 -0.71043366 0
0.61180532 -0.15225723 0.40769714 -0.54203963 6.9850621e-08 -0.84035283 0
0.98784775 -0.14751668 0.4074595 0.5403471 -3.5873605e-08 -0.84144217 0
1.045288 -0.1532843 0.45592365 0.70890421 4.4602981e-08 -0.70530474 0
0.55410588 -0.050063953 0.45663413 -0.71090066 -7.4287207e-09 -0.70329237 0
0.61178446 -0.049373973 0.40772852 -0.54104632 6.976169e-08 -0.84099275 0
0.98767984 -0.048472978 0.40738615 0.53931922 -1.6843162e-08 -0.8421014 0
1.0450528 -0.051064108 0.45570314 0.70792848 -3.3187245e-08 -0.70628417 0
0.55351049 0.048395418 0.45725596 -0.71233058 6.1798495e-08 -0.70184404 0
0.61060923 0.056977935 0.40847987 -0.54558337 4.1409155e-08 -0.83805662 0
0.98908132 0.048898708 0.40829423 0.54284346 8.7045812e-08 -0.83983397 0
1.0458354 0.052904017 0.45652843 0.71065712 -8.9549657e-09 -0.70353842 0
0.55458558 0.15034197 0.45592239 -0.70910138 1.1438863e-07 -0.70510656 0
0.61194509 0.15363549 0.40762436 -0.54082716 7.7434755e-08 -0.84113371 0
0.98736829 0.15030944 0.40717363 0.53785187 1.3755192e-08 -0.84303939 0
1.0471511 0.15098363 0.45762122 0.71418428 1.0516938e-07 -0.69995779 0
0.55627078 0.25142083 0.45412245 -0.70426399 1.013484e-07 -0.70993823 0
0.61194241 0.25056303 0.40761611 -0.54062223 1.6977926e-07 -0.84126544 0
0.98651999 0.25146917 0.40663344 0.53678763 1.0041698e-07 -0.84371734 0
1.0447527 0.25141457 0.4554244 0.70765454 4.1576293e-08 -0.70655864 0
0.55253905 0.34838298 0.45797855 -0.71541166 4.8269612e-08 -0.69870317 0
0.61187565 0.34791505 0.40765253 -0.5403406 1.0271486e-07 -0.8414464 0
0.98819023 0.34806305 0.40770283 0.53952295 1.6901671e-08 -0.84197092 0
1.0485814 0.34899914 0.45928559 0.71882129 6.605767e-09 -0.6951949 0
0.55251837 0.45117554 0.45814404 -0.71547449 8.4889464e-08 -0.6986388 0
0.61047244 0.45327649 0.4085623 -0.54561931 -4.6580553e-08 -0.83803314 0
0.98903424 0.44329023 0.40824375 0.54355425 -4.7357805e-08 -0.83937407 0
1.0421357 0.45024824 0.4529191 0.69979215 1.6411487e-07 -0.71434647 0
0.55386615 0.55140907 0.45671719 -0.71121264 1.587917e-08 -0.70297694 0
0.61093444 0.54983997 0.40826467 -0.54266906 -3.2260843e-08 -0.83994657 0
0.98871046 0.5484333 0.40802354 0.54218554 5.7367028e-08 -0.84025878 0
1.0451175 0.55000973 0.45558405 0.70806563 7.932443e-08 -0.7061466 0
0.55606508 0.65114963 0.45462137 -0.70527208 -7.0859394e-09 -0.70893669 0
0.61393142 0.65199363 0.4095127 -0.53933233 0.02352947 -0.84176427 0
0.76298797 0.69999987 0.45472938 -3.2544943e-07 1 4.2440197e-07 0
0.84758109 0.69999987 0.45485243 -3.5609602e-07 1 2.7678738e-07 0
0.98451138 0.65622294 0.41254529 0.53991145 0.076723374 -0.83821791 0
1.0476611 0.64640981 0.45831788 0.71543616 1.7326986e-08 -0.69867802 0
0.56796247 0.70000041 0.47060922 1.614525e-07 1 2.877186e-08 0
0.64744979 0.69999832 0.45340312 3.8137412e-07 1 4.2252839e-07 0
0.74594891 0.69999838 0.44744059 1.1151374e-07 1 3.5597165e-07 0
0.85101312 0.69999814 0.44934374 -1.225697e-07 1 2.8034412e-07 0
0.94873494 0.6999982 0.45002007 -3.5261274e-07 1 3.5056581e-07 0
1.0320967 0.70000029 0.4706516 -5.4754704e-08 1 -1.9043036e-07 0
0.48863429 -0.69999999 0.56844515 7.5865023e-07 -1 1.161058e-07 0
0.54430163 -0.69999868 0.54577655 2.8734271e-07 -1 3.4016679e-07 0
0.65361124 -0.69999909 0.55665863 -4.3324718e-07 -1 -8.8621721e-07 0
0.74950582 -0.69999844 0.55197924 -5.3949407e-08 -1 -8.9808424e-07 0
0.85316777 -0.6999982 0.5475843 3.2346549e-07 -1 -4.1167212e-07 0
0.94536042 -0.69999903 0.55575669 2.8723096e-07 -1 -3.4117508e-07 0
1.0537308 -0.69999862 0.54664212 -3.1237099e-07 -1 3.9478437e-07 0
1.1135885 -0.70000029 0.57434285 -6.2982951e-07 -1 -5.0719467e-07 0
0.48260504 -0.65213889 0.56044292 -0.91493225 -0.0093258014 -0.40349969 0
0.53282046 -0.67234075 0.53300065 -0.71128666 -0.53323013 -0.45797044 0
0.63435054 -0.70000052 0.54257798 -1.8919613e-07 -1 -2.2017902e-07 0
0.73595107 -0.69999987 0.51224434 -2.6688355e-07 -1 -7.9560374e-07 0
0.86918384 -0.69999987 0.52569205 2.4552995e-07 -1 -5.9075518e-07 0
0.95801824 -0.70000011 0.54106504 2.5627821e-07 -1 -3.0664353e-07 0
1.0729629 -0.66345704 0.52720392 0.76467836 -0.41840866 -0.49010321 0
1.118119 -0.65035379 0.56147534 0.91691202 9.0257458e-08 -0.39908928 0
0.48145893 -0.55014503 0.56249064 -0.91818517 8.9451163e-08 -0.39615142 0
0.50790608 -0.5480631 0.51149791 -0.84101397 5.1204786e-08 -0.54101348 0
1.0929849 -0.54696774 0.51284778 0.84312081 3.8323471e-08 -0.5377242 0
1.116799 -0.54879224 0.55845731 0.9129445 7.7159228e-08 -0.40808368 0
0.48248813 -0.4501183 0.56025171 -0.91524404 2.8426761e-08 -0.40289995 0
0.50776374 -0.45548224 0.51172513 -0.84131134 1.5965998e-07 -0.54055089 0
1.0930524 -0.45310837 0.51296073 0.84320354 -3.8168405e-08 -0.53759438 0
1.117667 -0.45249864 0.56050813 0.91541803 8.427449e-09 -0.40250453 0
0.48105371 -0.34953764 0.56345195 -0.91939008 2.6426477e-08 -0.39334705 0
0.5078612 -0.35166037 0.51154703 -0.84122413 1.0602533e-07 -0.54068661 0
1.092705 -0.35165137 0.51240909 0.84250289 -1.1244024e-07 -0.53869188 0
1.1186486 -0.35098338 0.56271279 0.91821074 6.8129005e-08 -0.39609215 0
0.48196656 -0.25199342 0.56135112 -0.91699606 6.6869004e-09 -0.39889619 0
0.50734591 -0.24625672 0.51234859 -0.8416239 -5.9611757e-08 -0.54006404 0
1.0914996 -0.24897319 0.51055461 0.83840191 -2.0001932e-10 -0.54505247 0
1.1187772 -0.25280437 0.56308728 0.91877609 8.1390592e-09 -0.394779 0
0.48178154 -0.1513855 0.56153482 -0.91663277 -4.8876824e-08 -0.3997305 0
0.506464 -0.15392198 0.51371759 -0.84424484 -2.8274968e-08 -0.53595763 0
1.0916409 -0.14988995 0.51079714 0.83913636 7.4872176e-08 -0.54392105 0
1.1179215 -0.15383907 0.56105721 0.91642541 -1.1073533e-07 -0.40020555 0
0.48192224 -0.048509229 0.56149817 -0.91681248 -8.0201872e-08 -0.39931804 0
0.5073806 -0.049186192 0.5123499 -0.84344423 -5.8022287e-08 -0.5372166 0
1.0930134 -0.048750088 0.51295227 0.84326679 1.3409958e-07 -0.53749526 0
1.1183536 -0.052676897 0.56225473 0.91769415 -1.0818493e-07 -0.39728752 0
0.48196951 0.049339376 0.56145322 -0.91671288 1.5743635e-07 -0.39954674 0
0.50770456 0.051378891 0.5118109 -0.84119731 5.5191407e-08 -0.54072833 0
1.0921878 0.052077178 0.511603 0.84072632 1.8555459e-08 -0.54146028 0
1.1187642 0.049384881 0.56313533 0.91920733 2.4982106e-07 -0.39377379 0
0.48279724 0.15089692 0.5597223 -0.91413301 -6.0069468e-08 -0.40541431 0
0.50784242 0.14568888 0.51160538 -0.8407948 7.6179418e-08 -0.54135394 0
1.0918316 0.15110481 0.5110606 0.8391726 2.5474217e-08 -0.5438652 0
1.1186521 0.15194285 0.5624311 0.91812181 4.0249621e-08 -0.39629832 0
0.48217639 0.25116348 0.56099457 -0.91613001 -9.4349302e-09 -0.40088114 0
0.50803959 0.25662574 0.51125813 -0.8401885 -7.7512766e-08 -0.5422945 0
1.0924157 0.24878576 0.51196736 0.84211504 1.2555667e-07 -0.539298 0
1.1185691 0.25048715 0.56279194 0.91826421 -1.3696501e-08 -0.39596823 0
0.48276737 0.35035926 0.55957866 -0.91398251 1.4204855e-07 -0.40575364 0
0.50741088 0.35106793 0.51223809 -0.84236866 -1.8963172e-08 -0.53890169 0
1.0918877 0.35316852 0.51117414 0.83963037 1.3989096e-07 -0.54315823 0
1.117533 0.35093918 0.56042111 0.91512138 1.4777409e-07 -0.40317851 0
0.48062348 0.45360237 0.56436342 -0.9202351 4.5072767e-08 -0.39136609 0
0.50797153 0.45466077 0.51137984 -0.84025848 1.4494183e-08 -0.54218602 0
1.0919728 0.44889298 0.51130438 0.84062666 4.6000071e-08 -0.54161501 0
1.1164298 0.45067677 0.557639 0.91201866 1.4634197e-07 -0.41014877 0
0.48204094 0.54824042 0.56125408 -0.91633493 -5.0182241e-08 -0.40041268 0
0.50736928 0.54962325 0.51231062 -0.84195226 5.8229435e-08 -0.53955203 0
1.0925491 0.54924536 0.51219559 0.84202063 -1.0990873e-08 -0.5394454 0
1.1186793 0.55222261 0.56296736 0.91855901 -9.6799369e-08 -0.39528379 0
0.48299369 0.64797795 0.55938709 -0.91391593 0.0081147542 -0.40582237 0
0.51133782 0.65188301 0.51241505 -0.83742571 0.034472391 -0.54546303 0
0.62899917 0.69999987 0.52348745 5.2462173e-07 1 1.8631422e-08 0
0.94631612 0.69999993 0.52946401 2.4152641e-07 1 -4.9971931e-07 0
1.0901313 0.65341789 0.51275176 0.84061706 0.029408658 -0.54083091 0
1.1185617 0.64854294 0.56263852 0.91821474 -1.9645969e-07 -0.39608291 0
0.48706433 0.70000017 0.57432419 6.6188295e-07 1 4.231714e-07 0
0.55164737 0.6999982 0.5514639 2.9333486e-07 1 4.4223069e-07 0
0.64977831 0.69999832 0.55179548 -3.0728816e-07 1 -2.3908007e-07 0
0.75058693 0.69999838 0.55014777 -5.3982978e-07 1 -4.8495764e-07 0
0.85118556 0.69999844 0.5502153 -3.5638312e-08 1 -9.6275812e-07 0
0.94712269 0.69999832 0.54876548 7.3170031e-07 1 -3.3817977e-07 0
1.0475843 0.69999832 0.55208814 -3.1174218e-07 1 4.0634774e-07 0
1.1121681 0.69999999 0.57525545 -4.4062034e-07 1 -2.0930969e-07 0
0.48018345 -0.70000023 0.65031987 9.5751254e-08 -1 8.9407564e-08 0
0.54121667 -0.69999909 0.64744729 4.6502922e-07 -1 1.8485534e-07 0
0.65227085 -0.69999826 0.65289527 -7.9496431e-07 -1 -3.3001737e-07 0
0.75134766 -0.6999982 0.64906096 2.661933e-07 -1 2.3135559e-07 0
0.85006613 -0.6999982 0.64734167 2.1552513e-07 -1 2.1227409e-08 0
0.94776052 -0.69999838 0.65153515 3.1624504e-07 -1 -1.2953164e-07 0
1.0572369 -0.69999897 0.64858139 -4.099407e-07 -1 1.0835429e-07 0
1.1206346 -0.70000011 0.65482211 -1.6327739e-07 -1 -1.3382061e-07 0
0.45806235 -0.65286452 0.64889765 -0.98792559 -0.03938628 -0.14983875 0
0.56494182 -0.70000046 0.64890349 -3.0203054e-08 -1 -1.535371e-07 0
0.62290466 -0.69999987 0.65086561 -7.23097e-07 -1 -5.8117854e-07 0
0.77467132 -0.69999999 0.68501091 -1.9761651e-06 -1 3.6971444e-06 0
0.84712905 -0.69999999 0.65980387 0 -1 0 0
0.96379334 -0.69999993 0.63263577 5.7575295e-07 -1 -8.2286689e-08 0
1.032344 -0.70000011 0.6522119 1.8780845e-08 -1 7.3953972e-09 0
1.1421546 -0.6518361 0.64980155 0.98853606 -0.033194695 -0.1472903 0
0.45718709 -0.5492003 0.64922643 -0.98904026 1.0128569e-07 -0.14764637 0
1.1428301 -0.55187941 0.64977491 0.98942477 2.5907999e-08 -0.14504698 0
0.45725694 -0.44971082 0.64948529 -0.98923117 -2.9720171e-09 -0.14636157 0
1.1428677 -0.44961065 0.65039819 0.98957592 2.0721414e-07 -0.144012 0
0.45679069 -0.34870502 0.65303522 -0.99073964 4.1995407e-09 -0.13577527 0
1.1428218 -0.35177103 0.6501258 0.98956698 6.0998467e-08 -0.14407395 0
0.45699149 -0.25004721 0.65059233 -0.98966098 1.7253905e-08 -0.14342622 0
1.1430422 -0.25115955 0.65109718 0.99002635 -7.8397278e-08 -0.14088245 0
0.45717388 -0.14873326 0.64941967 -0.98932338 -3.8825885e-08 -0.14573692 0
1.1424122 -0.15222986 0.64681649 0.98819351 -1.8446965e-08 -0.15321101 0
0.45744258 -0.048015498 0.64711571 -0.98826402 -2.8218688e-08 -0.15275533 0
1.142554 -0.049460825 0.64840329 0.98880905 5.2723927e-09 -0.14918704 0
0.45755598 0.051152851 0.6470865 -0.98817021 2.7193098e-08 -0.15336105 0
1.142758 0.053085189 0.6491195 0.98919576 3.6131205e-08 -0.14660022 0
0.45698914 0.15465012 0.65087795 -0.98984569 5.8366275e-08 -0.14214586 0
1.1422518 0.15046132 0.6459825 0.98776466 -1.1617377e-07 -0.15595186 0
0.45743969 0.25057483 0.64812392 -0.9886685 2.8941873e-09 -0.15011534 0
1.1430347 0.24986336 0.65184766 0.99037319 6.2005885e-09 -0.13842332 0
0.45733252 0.3496201 0.64906967 -0.98909599 -1.5964408e-08 -0.14727229 0
1.1427083 0.35081702 0.64918315 0.98922521 2.6536799e-08 -0.14640178 0
0.45715022 0.45091555 0.64969826 -0.98951823 3.0273022e-09 -0.14440794 0
1.1426566 0.44943497 0.64807338 0.98870921 -1.1875039e-07 -0.14984715 0
0.45752087 0.54800528 0.64766943 -0.98854119 -8.6419362e-08 -0.15095162 0
1.1426994 0.54750544 0.64902341 0.98910022 -3.8335116e-08 -0.14724389 0
0.45766121 0.65237808 0.6467616 -0.98816317 -9.5925209e-08 -0.1534068 0
0.5712505 0.69999987 0.65305859 -4.7097802e-07 1 -2.6212933e-07 0
0.99912566 0.69999993 0.6214112 9.5638893e-07 1 -3.9615512e-07 0
1.0296477 0.69999987 0.64168644 -1.4379633e-07 1 5.6715999e-07 0
1.1425847 0.64879084 0.64847338 0.98879343 0.0037584559 -0.14924307 0
0.47828817 0.69999957 0.65807128 -7.7190677e-08 1 8.4955552e-08 0
0.54911304 0.69999826 0.65269822 3.1154045e-07 1 1.9158314e-07 0
0.65050709 0.69999832 0.65002227 -3.5029191e-07 1 -1.7117785e-07 0
0.74877346 0.6999982 0.64980978 -2.8919462e-07 1 1.3685296e-07 0
0.85186899 0.6999982 0.6508866 -3.1699025e-07 1 1.4514877e-07 0
0.94978231 0.69999826 0.64957601 5.2767132e-07 1 -6.0863988e-07 0
1.0501275 0.6999985 0.64984816 -2.7798939e-07 1 2.0870213e-07 0
1.1212032 0.70000011 0.65494764 -4.8339079e-08 1 2.304764e-08 0
0.47757688 -0.69999987 0.74766022 -8.332335e-08 -1 -3.6314336e-07 0
0.53529257 -0.69999915 0.750534 5.286322e-07 -1 -1.5243837e-07 0
0.65044129 -0.69999826 0.7497924 -8.2173841e-07 -1 2.1106658e-07 0
0.75079656 -0.69999838 0.74947023 1.6635468e-07 -1 -3.3478972e-07 0
0.84896463 -0.69999826 0.75364554 1.2852712e-07 -1 -3.0170045e-07 0
0.94877344 -0.69999856 0.75004619 3.5243238e-07 -1 1.5209682e-07 0
1.0579033 -0.69999868 0.74833882 -4.5601558e-07 -1 -8.5404892e-08 0
1.1208528 -0.69999993 0.74586487 5.8269645e-08 -1 -2.4300343e-07 0
0.45792922 -0.65532088 0.74867791 -0.98883736 -0.044290401 0.14226413 0
0.5595361 -0.70000046 0.74933612 2.4444719e-07 -1 -3.7653496e-08 0
0.61026561 -0.69999993 0.75658178 -9.8224757e-07 -1 -1.2400203e-07 0
0.80881119 -0.69999999 0.7317819 4.0116383e-06 -1 -1.2169172e-06 0
0.97639215 -0.69999987 0.77250993 4.3975132e-07 -1 5.4396099e-07 0
1.0371397 -0.70000052 0.74362755 -1.5165134e-07 -1 -1.6563915e-08 0
1.1422336 -0.65166646 0.7505371 0.98900956 -0.019006757 0.1466243 0
0.45701078 -0.54986554 0.74961609 -0.98974198 1.0039968e-07 0.14286667 0
1.1426203 -0.55137914 0.75087994 0.98918092 8.1028034e-08 0.14670113 0
0.45707488 -0.45021024 0.74873054 -0.9900527 -1.1229053e-09 0.14069712 0
1.1429496 -0.45196474 0.75017434 0.9894954 1.7852301e-08 0.14456485 0
0.45742217 -0.35298643 0.75219047 -0.98851019 -3.0831927e-08 0.15115425 0
1.1428844 -0.3518368 0.74964559 0.98971057 -4.4711252e-09 0.14308345 0
0.45769179 -0.24873219 0.75414467 -0.98762554 -6.2003927e-08 0.15683006 0
1.1435926 -0.2479486 0.74477059 0.99154264 -3.1615905e-08 0.12978108 0
0.45737776 -0.15118532 0.75249207 -0.98847502 -3.4626698e-08 0.15138379 0
1.1428417 -0.14826775 0.7497713 0.98967057 -5.1086499e-08 0.14336005 0
0.45709932 -0.048630919 0.74979615 -0.98961997 -3.2529446e-08 0.14370899 0
1.1425496 -0.048479538 0.75238681 0.98853695 -1.5994503e-08 0.15097861 0
0.4570092 0.051577061 0.74883223 -0.98998195 3.3855834e-08 0.14119437 0
1.1426494 0.051964618 0.75128782 0.9890213 1.3767328e-08 0.14777306 0
0.45702058 0.15039554 0.75005698 -0.9895249 1.925952e-08 0.14436266 0
1.1427839 0.15363923 0.75002021 0.98946995 3.0433334e-08 0.14473853 0
0.45699999 0.24857739 0.74869257 -0.9899841 -3.1219429e-08 0.14117895 0
1.1425409 0.24989402 0.75273448 0.9883604 -2.2265217e-08 0.15213057 0
0.457526 0.35293311 0.75293839 -0.98828346 1.628168e-08 0.15262957 0
1.1426201 0.34985769 0.75162667 0.98887026 9.0189314e-09 0.14878094 0
0.45736971 0.44775206 0.7512058 -0.98900372 5.007541e-08 0.147891 0
1.1425951 0.45063713 0.75142235 0.98899513 4.1172676e-08 0.14794803 0
0.45724383 0.54869986 0.75138777 -0.98880804 -8.8726914e-08 0.14919358 0
1.1424921 0.55010378 0.75260484 0.98834598 -1.3216565e-07 0.15222391 0
0.4570328 0.65036523 0.74966413 -0.98967195 -7.4834773e-08 0.14335103 0
0.56285268 0.69999987 0.75156969 -2.4685266e-07 1 -5.4557665e-07 0
0.98890114 0.69999993 0.79218698 1.9073588e-07 1 1.4655766e-06 0
1.0293711 0.69999987 0.7619583 -1.5036211e-07 1 -7.0937068e-07 0
1.1427567 0.65327549 0.75114864 0.9889949 -1.341453e-07 0.14794977 0
0.47756103 0.69999963 0.74849141 -6.3235333e-08 1 -3.0175303e-07 0
0.54716653 0.69999832 0.74833012 3.7282268e-07 1 -1.4138651e-07 0
0.64911753 0.69999826 0.74985123 -4.0284482e-07 1 1.0429515e-07 0
0.74535549 0.6999982 0.74974674 -9.5462845e-08 1 -1.6816247e-07 0
0.85219973 0.69999814 0.74728173 -4.2889468e-07 1 -2.2752987e-07 0
0.94791979 0.6999982 0.74583822 7.9658327e-07 1 2.3317824e-07 0
1.050932 0.69999832 0.75097454 -4.1307814e-07 1 -8.4233633e-08 0
1.1211516 0.69999969 0.74495918 -9.1491707e-08 1 -2.3176607e-07 0
0.49054036 -0.70000017 0.82703698 3.553657e-07 -1 1.7237947e-07 0
0.54545116 -0.69999874 0.85184789 2.0012857e-07 -1 -2.6287688e-07 0
0.65858215 -0.69999903 0.8496297 -7.2852146e-07 -1 5.3362317e-07 0
0.74935526 -0.6999982 0.84832817 -4.4897536e-07 -1 1.0477735e-06 0
0.84786123 -0.69999826 0.84886748 1.2221741e-06 -1 6.7047262e-07 0
0.94515073 -0.69999886 0.84135568 3.405207e-07 -1 3.3150081e-07 0
1.0535735 -0.69999868 0.85067958 -3.0924406e-07 -1 -2.8107846e-07 0
1.1111749 -0.70000023 0.82730693 -6.0661074e-07 -1 2.9026273e-07 0
0.48146608 -0.65143675 0.8370955 -0.91820526 -0.013482037 0.39587533 0
0.53569251 -0.67201585 0.86739552 -0.662395 -0.61596 0.4264107 0
0.63935226 -0.70000017 0.8643114 -2.8486528e-07 -1 9.0951858e-08 0
0.72566968 -0.69999987 0.88451022 -7.6501993e-07 -1 1.1938307e-06 0
0.8681038 -0.69999987 0.88524169 -4.544999e-09 -1 1.3250237e-06 0
0.95478272 -0.69999993 0.8607499 3.4741532e-07 -1 3.3048869e-07 0
1.0623831 -0.67103988 0.86106145 0.63138354 -0.6631552 0.40197012 0
1.1192586 -0.65178269 0.83543366 0.92042238 -0.013986113 0.39067516 0
0.48176017 -0.54878348 0.83818847 -0.91672289 3.528142e-08 0.39952371 0
0.50714684 -0.54758996 0.88731629 -0.8432852 6.3515969e-08 0.53746635 0
1.0927187 -0.55235177 0.88751447 0.84223086 -3.8031281e-08 0.53911704 0
1.1181421 -0.55218828 0.83845925 0.91678452 7.3668787e-08 0.39938223 0
0.48261094 -0.45199716 0.84008068 -0.91480458 -1.1854829e-07 0.40389675 0
0.50741118 -0.45074695 0.88775837 -0.84273767 -1.0320073e-07 0.53832448 0
1.0919137 -0.45003912 0.88879412 0.84048259 3.1300019e-08 0.54183847 0
1.1184772 -0.44885477 0.837681 0.91786206 -8.0321996e-08 0.39689946 0
0.48217171 -0.34878772 0.83913964 -0.91610432 -3.7410185e-08 0.40093991 0
0.5073207 -0.35169834 0.88759309 -0.84235066 -1.1974093e-07 0.53892982 0
1.0927941 -0.34266922 0.88742334 0.84351391 1.345621e-10 0.53710735 0
1.118237 -0.34890306 0.83785564 0.91729748 -7.6712624e-08 0.39820248 0
0.4824059 -0.24810214 0.8395496 -0.9152236 -1.1500709e-08 0.40294644 0
0.50655365 -0.25057098 0.88642627 -0.84433842 -1.7465746e-07 0.53581029 0
1.0919092 -0.24745178 0.88879472 0.84007096 -4.6196647e-08 0.54247659 0
1.1185397 -0.25068 0.83713776 0.91833955 -5.9556641e-08 0.39579341 0
0.48236009 -0.14897689 0.83925122 -0.91591066 -1.2931382e-07 0.40138212 0
0.50755 -0.15032618 0.88795662 -0.84138155 6.2137584e-09 0.54044151 0
1.0927722 -0.14152987 0.8874377 0.84241456 -1.0200724e-08 0.53882992 0
1.1174604 -0.14798866 0.84001535 0.9150486 -5.9587023e-08 0.40334353 0
0.48248124 -0.050318424 0.83980656 -0.91489238 -1.2852728e-07 0.40369776 0
0.50634414 -0.055528712 0.88608021 -0.84496492 1.0037395e-07 0.53482169 0
1.0919487 -0.051336776 0.88874221 0.84017211 0 0.54231989 0
1.118106 -0.050065134 0.83865058 0.91665298 -5.8760886e-08 0.3996841 0
0.4821811 0.050308481 0.83928436 -0.91550457 1.5016288e-07 0.40230757 0
0.50795513 0.047756445 0.88858593 -0.84094489 -1.0993577e-07 0.54112083 0
1.0917015 0.053005442 0.88911563 0.8400017 -1.8059779e-08 0.5425837 0
1.1179613 0.049638391 0.83879596 0.9163304 -6.180219e-08 0.40042296 0
0.48207977 0.14856894 0.83886546 -0.91619605 1.0198212e-08 0.40073022 0
0.50754392 0.14757952 0.88793451 -0.84173334 4.4055962e-08 0.53989345 0
1.0925373 0.14612676 0.88781613 0.84178829 -7.7426101e-08 0.53980792 0
1.1189836 0.15008771 0.83655494 0.91911656 -1.0949449e-07 0.39398572 0
0.48169002 0.25059977 0.83796901 -0.91737056 -6.6779151e-08 0.3980341 0
0.50745595 0.24578249 0.88777429 -0.84233105 6.884833e-08 0.53896046 0
1.0925938 0.24713597 0.88771188 0.84198695 -1.895885e-09 0.53949797 0
1.1184951 0.24823011 0.8374365 0.91786772 4.2726764e-08 0.39688644 0
0.48189345 0.34859702 0.838278 -0.9170509 4.2167638e-08 0.39877003 0
0.50677532 0.359043 0.88677138 -0.84366667 -3.0367623e-08 0.53686738 0
1.0922741 0.35209078 0.88820541 0.84144002 -3.8480206e-08 0.54035062 0
1.1172949 0.34859079 0.84030288 0.91416353 1.1699007e-07 0.40534547 0
0.48169065 0.45186016 0.8380155 -0.91773677 3.2298267e-08 0.39718914 0
0.50748807 0.45169261 0.88783354 -0.84177583 -1.384706e-07 0.53982717 0
1.0932158 0.45186445 0.88677841 0.84378749 -1.3485857e-07 0.53667754 0
1.117743 0.44738385 0.83954924 0.91542977 1.2876116e-07 0.40247765 0
0.48204765 0.55493581 0.83897662 -0.91641337 -4.9194128e-08 0.40023321 0
0.50805295 0.54926604 0.8887651 -0.83921319 -7.1543298e-08 0.54380256 0
1.091857 0.5516057 0.88886708 0.84051359 -3.4495063e-08 0.54179043 0
1.118831 0.54896116 0.83696371 0.91882229 -7.5206444e-08 0.39467141 0
0.4821271 0.65183955 0.83898336 -0.91614449 -1.376176e-07 0.40084821 0
0.51020265 0.6492756 0.88743389 -0.83899277 0.025972284 0.54352236 0
0.62552828 0.69999987 0.86650801 -2.4125056e-08 1 -3.7285386e-07 0
0.71368325 0.69999993 0.8988269 -3.9614841e-07 1 9.5639098e-07 0
0.95707971 0.69999993 0.86482066 1.0895166e-06 1 -1.2352814e-07 0
1.0891724 0.65344071 0.88622338 0.84069049 0.038443487 0.54014951 0
1.1172243 0.65214252 0.84027588 0.91470206 -1.1367095e-07 0.40412882 0
0.48790154 0.70000029 0.82931679 6.0465356e-07 1 -5.1702648e-07 0
0.54976207 0.69999838 0.84828079 4.9031655e-07 1 -2.6757363e-07 0
0.65445125 0.69999826 0.85103488 -2.9331161e-07 1 3.692879e-07 0
0.75086623 0.69999832 0.84924591 -2.3340014e-07 1 5.6260927e-07 0
0.84710991 0.69999814 0.85113633 4.1267546e-07 1 9.2123105e-07 0
0.95247835 0.69999826 0.84632051 3.0767399e-07 1 5.924652e-07 0
1.0525286 0.69999826 0.85101861 -2.7503296e-07 1 -4.0400116e-07 0
1.1137408 0.70000029 0.82136035 -7.0508986e-07 1 -1.4411712e-07 0
0.56957096 -0.70000005 0.92686701 2.2228608e-07 -1 6.3662036e-09 0
0.64760602 -0.69999844 0.95566005 2.6663821e-07 -1 -3.7979527e-07 0
0.7510916 -0.69999915 0.95949227 3.5056547e-07 -1 -4.2989376e-07 0
0.85074526 -0.69999915 0.95743716 -5.5008751e-08 -1 -4.3817849e-07 0
0.95164067 -0.69999856 0.95578057 -4.3816846e-07 -1 -2.2160044e-07 0
1.0316516 -0.70000035 0.93278998 9.1214247e-08 -1 -5.9710821e-08 0
0.55668646 -0.65190667 0.945521 -0.70417041 -0.008820219 0.7099762 0
0.63227689 -0.67172921 0.96744287 -0.45003217 -0.56019562 0.69545084 0
0.75349301 -0.70000029 0.93627018 -2.14e-08 -1 -3.1771364e-08 0
0.85193163 -0.70000035 0.93342006 -1.3008217e-07 -1 7.4122653e-08 0
0.96579146 -0.66747189 0.96575302 0.42736915 -0.61251903 0.6649633 0
1.0431645 -0.65127271 0.94650912 0.70263171 -0.009717186 0.71148735 0
0.55636048 -0.5508073 0.94561797 -0.70449889 -2.5867802e-08 0.709705 0
0.6127525 -0.54996002 0.99289715 -0.53793353 8.4331617e-08 0.8429873 0
0.98814422 -0.55448598 0.99235475 0.54102284 4.4929251e-09 0.84100789 0
1.0450191 -0.54769814 0.94443005 0.7070722 -3.5364145e-08 0.70714134 0
0.55563188 -0.45021161 0.9451257 -0.70619422 -6.2277309e-08 0.70801812 0
0.6113447 -0.45002279 0.99200404 -0.54170132 2.8233602e-08 0.84057099 0
0.98902678 -0.44844601 0.99176955 0.54349148 0 0.83941466 0
1.0432471 -0.45229971 0.94613707 0.70281941 -3.0823088e-08 0.7113682 0
0.55580324 -0.34968096 0.94504511 -0.70558351 -1.06709e-07 0.70862675 0
0.61205995 -0.34818524 0.9924615 -0.54028344 -5.0969224e-08 0.84148312 0
0.98667747 -0.35169029 0.99328917 0.53633296 -1.2734709e-07 0.84400654 0
1.046133 -0.3506152 0.94331479 0.71193445 -6.1097836e-08 0.70224589 0
0.55452418 -0.24802491 0.94386333 -0.70994252 -1.09235e-07 0.70425957 0
0.61235982 -0.24775547 0.99265367 -0.53987843 -2.3958719e-07 0.84174299 0
0.98671567 -0.24952038 0.99325103 0.53683305 -2.6139978e-07 0.84368849 0
1.0453565 -0.24749245 0.9439764 0.70918947 -9.3602758e-08 0.70501786 0
0.55509871 -0.15073103 0.94428229 -0.70763421 -3.145778e-08 0.70657885 0
0.61042511 -0.14963421 0.99143094 -0.54531312 -1.3771806e-07 0.83823252 0
0.98856217 -0.1463744 0.99207824 0.54187268 3.9144446e-08 0.84046054 0
1.0467182 -0.15221664 0.9426415 0.71279055 -1.9193275e-08 0.70137691 0
0.5532136 -0.048532881 0.94235528 -0.71385396 -5.4116377e-08 0.70029461 0
0.61189431 -0.046340011 0.99235278 -0.53945053 -6.5097801e-08 0.84201735 0
0.98794037 -0.048552055 0.99246699 0.53965831 7.2672272e-08 0.8418842 0
1.043272 -0.051298298 0.9462654 0.70275718 8.8013712e-09 0.71142977 0
0.55586892 0.048049096 0.94521189 -0.70541209 -6.6531122e-08 0.7087974 0
0.61195797 0.057556558 0.99238873 -0.54057336 5.7945666e-08 0.84129691 0
0.98853332 0.055939086 0.99208635 0.5419867 1.1286188e-07 0.84038705 0
1.0448698 0.049322534 0.94438279 0.70793003 -1.468577e-07 0.70628262 0
0.55877191 0.15492648 0.94817287 -0.69718295 -4.3382178e-09 0.71689332 0
0.61296749 0.15042266 0.99303186 -0.53823125 1.8786327e-08 0.84279722 0
0.98809332 0.15086961 0.99235618 0.54062134 7.8643595e-08 0.8412661 0
1.0455999 0.14847524 0.943914 0.70943207 -2.4866042e-08 0.70477378 0
0.5566262 0.25021151 0.94592339 -0.70299268 -7.0990516e-09 0.71119714 0
0.61019915 0.24957463 0.99127734 -0.54531246 -2.3755229e-07 0.83823287 0
0.98717225 0.25377169 0.99296123 0.53823191 -1.0002532e-07 0.84279674 0
1.0426995 0.24652538 0.94658679 0.70195735 5.9894838e-08 0.71221894 0
0.55760539 0.35368469 0.94709665 -0.70069695 6.6064365e-10 0.71345901 0
0.6111601 0.34693241 0.99187756 -0.54388684 -2.7795787e-07 0.83915854 0
0.99004793 0.35136944 0.99110615 0.54476601 -1.3257829e-07 0.83858812 0
1.0447488 0.35382006 0.94456953 0.70692307 -6.6732824e-08 0.70729053 0
0.55516917 0.45215747 0.94483441 -0.70713145 -6.575403e-08 0.70708203 0
0.61233914 0.45468506 0.99263316 -0.53898543 -6.6523e-08 0.84231514 0
0.98819584 0.45431793 0.99229902 0.54109412 -8.6521226e-08 0.84096199 0
1.0472959 0.45050526 0.94201487 0.71437633 -7.3010362e-08 0.69976175 0
0.55834949 0.54918772 0.94741708 -0.69895631 2.5117643e-08 0.71516436 0
0.61348218 0.55331308 0.99339145 -0.53560001 6.586945e-08 0.84447175 0
0.98963177 0.54592264 0.99138379 0.54395562 -4.6341508e-08 0.83911407 0
1.0424865 0.54939568 0.94685435 0.70066702 2.3054088e-09 0.7134884 0
0.55361557 0.65212393 0.94268495 -0.7122438 5.8174049e-08 0.70193207 0
0.61552155 0.65087682 0.98805344 -0.53872561 0.057893161 0.84048986 0
0.75748509 0.69999987 0.93780231 1.077662e-07 1 1.9864292e-07 0
0.82849693 0.69999987 0.92425221 -4.0921566e-07 1 8.8760636e-08 0
0.9851957 0.65448719 0.98901975 0.53849018 0.053272422 0.84094608 0
1.0432166 0.65076059 0.94591308 0.70335168 8.1674678e-08 0.71084207 0
0.57027966 0.69999987 0.92671597 2.1314523e-07 1 1.0446876e-08 0
0.65204012 0.69999838 0.95061547 4.4441896e-07 1 -3.9158815e-07 0
0.75216693 0.6999982 0.94967985 7.1065791e-08 1 -3.0442499e-07 0
0.84893721 0.6999982 0.95085204 -1.3884248e-07 1 -2.4134442e-07 0
0.95071989 0.69999832 0.94861525 -2.0669103e-07 1 -3.0706312e-07 0
1.0274737 0.69999981 0.92952216 -1.4244037e-07 1 -5.0010442e-08 0
0.67413032 -0.70000029 1.0132948 5.71822e-07 -1 -4.2224454e-07 0
0.75646085 -0.69999981 1.0238569 4.8385215e-07 -1 1.5994392e-08 0
0.84289157 -0.70000029 1.0232972 -1.3578313e-07 -1 -1.3896715e-07 0
0.9246667 -0.70000011 1.011829 8.2033083e-08 -1 -1.0761528e-06 0
0.66104722 -0.65038258 1.0176861 -0.40109921 -0.0043405718 0.91602433 0
0.75296241 -0.65477175 1.0424734 -0.13584936 -0.033186052 0.99017352 0
0.85091251 -0.65114766 1.0418118 0.14707397 -0.048088603 0.98795581 0
0.93813276 -0.65115243 1.0180089 0.39911187 -0.018472534 0.91671616 0
0.66182405 -0.54661447 1.0182468 -0.39828882 2.9373709e-08 0.91726005 0
0.75423408 -0.55165333 1.0434622 -0.13206293 2.6055853e-08 0.99124134 0
0.84907585 -0.54929191 1.043026 0.14174542 4.7976223e-09 0.98990321 0
0.93767685 -0.55221796 1.0184274 0.39721107 5.1661274e-08 0.91772723 0
0.66203475 -0.44692677 1.0183482 -0.39666158 -7.4792055e-08 0.91796494 0
0.74742782 -0.44814152 1.0423998 -0.1514118 0 0.98847079 0
0.84889036 -0.44870421 1.0429679 0.14141366 3.5119488e-08 0.9899506 0
0.94041717 -0.45036334 1.0172106 0.40431717 1.5504972e-08 0.91461885 0
0.66053987 -0.34868437 1.0176369 -0.40166661 -5.3502969e-08 0.91578597 0
0.74946159 -0.34995493 1.0428203 -0.14562823 -1.5759687e-07 0.98933935 0
0.85246122 -0.34981012 1.0426356 0.1509825 -7.2747426e-08 0.98853636 0
0.9374069 -0.34952962 1.0185275 0.39586154 -8.5665519e-08 0.91831017 0
0.6624105 -0.24778865 1.0185426 -0.39764616 -4.3832152e-08 0.91753894 0
0.75025386 -0.2526013 1.0428983 -0.14356868 -2.964928e-07 0.98964041 0
0.8512035 -0.24850519 1.0427532 0.14771311 -2.0879109e-07 0.98903024 0
0.93739611 -0.25062174 1.0185763 0.39603913 -2.3543288e-07 0.91823363 0
0.65872842 -0.14831512 1.0168157 -0.40681598 -1.4758078e-07 0.91351008 0
0.74869788 -0.1478398 1.0427086 -0.14761285 -1.2157314e-07 0.9890452 0
0.85340106 -0.14818789 1.0424135 0.1540686 -8.731498e-08 0.98806012 0
0.93660039 -0.14765656 1.0188301 0.39343718 -1.9429837e-08 0.91935152 0
0.66224462 -0.051548623 1.0183756 -0.39679652 -2.380776e-07 0.91790664 0
0.74872589 -0.05175275 1.0426127 -0.14797607 5.9494432e-09 0.98899102 0
0.84921217 -0.051696919 1.0429505 0.14256094 -5.5620209e-08 0.98978597 0
0.9372614 -0.053345837 1.0185077 0.39522871 -1.2393338e-08 0.91858274 0
0.66001332 0.049467329 1.0174123 -0.40295285 2.189531e-07 0.91522074 0
0.74830455 0.050424621 1.0426111 -0.14876321 -3.9827899e-08 0.98887283 0
0.84973353 0.050586846 1.0429429 0.14340268 1.289571e-07 0.98966438 0
0.93932384 0.045524254 1.0177089 0.4023436 2.552589e-07 0.91548872 0
0.6611985 0.15085565 1.017975 -0.40094629 -1.2224639e-07 0.91610157 0
0.75092411 0.15014027 1.0429473 -0.14218651 3.3088135e-08 0.98983991 0
0.84949052 0.14962384 1.0429165 0.14262475 1.9037454e-08 0.98977685 0
0.93678731 0.14706454 1.0188227 0.39419159 3.1924358e-08 0.91902828 0
0.66177839 0.25332758 1.0181631 -0.39941433 -1.4637723e-07 0.91677052 0
0.7466718 0.25108892 1.0423644 -0.15401348 -1.6140845e-07 0.98806876 0
0.84727764 0.24950844 1.0432225 0.13689835 -3.2144254e-07 0.99058509 0
0.93920738 0.25003079 1.0177436 0.40134996 -3.8421703e-07 0.91592473 0
0.66093951 0.34962949 1.0178355 -0.40072748 -1.1803467e-08 0.91619724 0
0.7501983 0.34928101 1.0429389 -0.14389044 -1.3097132e-07 0.98959357 0
0.85454035 0.3520321 1.0422274 0.15782548 -8.7394923e-08 0.98746705 0
0.94093978 0.34728518 1.0170228 0.40673453 -3.8444757e-08 0.91354638 0
0.66002733 0.44927955 1.017422 -0.40386212 -1.0003426e-07 0.91481984 0
0.75008953 0.45183593 1.0428605 -0.14424962 0 0.98954135 0
0.85446638 0.4497565 1.0421085 0.15767711 4.5485187e-08 0.98749071 0
0.94057506 0.44946393 1.0170568 0.40506679 2.2249358e-07 0.91428703 0
0.66063881 0.54633576 1.0175935 -0.40229934 -9.4679208e-08 0.91550821 0
0.74876857 0.54946131 1.0426719 -0.14896299 -1.1759872e-07 0.98884279 0
0.85204601 0.54860038 1.042539 0.15013915 -1.0876455e-07 0.98866487 0
0.93957961 0.55368173 1.017572 0.40281132 -6.8036307e-08 0.91528302 0
0.66120207 0.65093565 1.017936 -0.40008053 -5.5271212e-08 0.91648 0
0.74909508 0.65279663 1.0427845 -0.14736111 -1.9433156e-07 0.98908275 0
0.84700763 0.65358537 1.0434021 0.13562563 -2.0088616e-07 0.99076021 0
0.93785399 0.65101719 1.0183589 0.39797702 -1.7800272e-07 0.91739541 0
0.66897762 0.70000029 1.0134485 9.4754931e-08 1 -1.1458221e-06 0
0.75272638 0.69999987 1.0191762 2.0012567e-07 1 -1.1670239e-07 0
0.84565991 0.70000011 1.0232379 -4.336039e-07 1 -6.8891922e-08 0
0.92774493 0.69999999 1.0118011 4.2810484e-08 1 -4.2853571e-07 0
