# .PCD v0.7 - Point Cloud Data file format
VERSION 0.7
FIELDS x y z normal_x normal_y normal_z curvature
SIZE 4 4 4 4 4 4 4
TYPE F F F F F F F
COUNT 1 1 1 1 1 1 1
WIDTH 666
HEIGHT 1
VIEWPOINT 0 0 0 1 0 0 0
POINTS 666
DATA ascii
0.67608011 -0.36261809 -0.33905417 -0.21260488 4.7726729e-08 -0.97713828 0
0.76257598 -0.3618342 -0.34673029 0.035500657 3.1796592e-08 -0.99936968 0
0.8426652 -0.36305287 -0.33434039 0.26691973 5.1603969e-08 -0.96371871 0
0.8830542 -0.36866724 -0.32127365 0.38126364 1.5901564e-07 -0.92446637 0
0.6264739 -0.28325182 -0.32496542 -0.3562693 7.5984667e-09 -0.93438339 0
0.68371737 -0.27997199 -0.34048617 -0.19002759 1.4144385e-07 -0.98177868 0
0.75721955 -0.28089494 -0.34695175 0.020640248 1.9428535e-07 -0.99978691 0
0.84200412 -0.27994049 -0.33448333 0.26491576 1.322138e-07 -0.96427155 0
0.88254035 -0.2836999 -0.32148808 0.38040406 -2.8742969e-07 -0.92482036 0
0.62666887 -0.20030615 -0.32505873 -0.35633412 2.1193996e-08 -0.9343586 0
0.68036336 -0.19921911 -0.33984736 -0.20028856 5.9278612e-08 -0.97973692 0
0.7586385 -0.20380829 -0.34693328 0.023482637 1.9938074e-07 -0.99972427 0
0.84186047 -0.19854559 -0.3345359 0.2654686 6.8761423e-08 -0.96411949 0
0.88465834 -0.19754329 -0.32060224 0.38949355 -3.9465569e-08 -0.92102915 0
0.6267826 -0.11364508 -0.32506925 -0.35450819 2.6614529e-08 -0.93505287 0
0.68067807 -0.12028375 -0.33993113 -0.19936597 -5.7786508e-08 -0.9799251 0
0.75910234 -0.12003314 -0.34681091 0.026384626 -4.375574e-08 -0.99965191 0
0.83980197 -0.12159704 -0.33509159 0.25878981 -2.676691e-08 -0.96593362 0
0.88283455 -0.12103691 -0.32136801 0.38192359 -2.0871154e-08 -0.92419392 0
0.62656003 -0.041746188 -0.32499981 -0.35542309 -3.5929244e-08 -0.93470556 0
0.67964739 -0.038556885 -0.33973068 -0.20167631 6.4248158e-09 -0.97945219 0
0.76387644 -0.040335216 -0.34670907 0.039872769 -4.3716994e-08 -0.99920475 0
0.83980441 -0.038296334 -0.33507445 0.25943604 -3.0803518e-09 -0.96576029 0
0.88263196 -0.03900817 -0.32144973 0.37997353 -4.5181984e-08 -0.92499733 0
0.6274575 0.041438907 -0.32533032 -0.35341904 1.9203358e-07 -0.93546504 0
0.68063539 0.040512752 -0.34003237 -0.19972996 1.0787402e-07 -0.97985101 0
0.76301622 0.038970064 -0.34673437 0.037477877 5.6079365e-08 -0.99929744 0
0.83920693 0.042426765 -0.33531898 0.25727993 9.2593995e-09 -0.96633691 0
0.88335216 0.035963371 -0.32115415 0.38410303 6.8708069e-08 -0.92329025 0
0.62489092 0.119147 -0.32436675 -0.36046875 8.8956227e-08 -0.93277133 0
0.68029743 0.11946829 -0.33984777 -0.1993715 2.6128003e-08 -0.97992402 0
0.75966376 0.11891421 -0.34682184 0.027458968 5.8781421e-08 -0.99962294 0
0.83724666 0.11950239 -0.33575645 0.25230229 -3.7340612e-08 -0.96764851 0
0.88289297 0.10796474 -0.32134786 0.38005722 0 -0.924963 0
0.62576854 0.19690701 -0.3247028 -0.35575008 7.7852263e-08 -0.9345811 0
0.67971712 0.19739167 -0.33981931 -0.20233472 7.2272634e-08 -0.97931647 0
0.75985605 0.19931732 -0.34682488 0.02766422 1.7633437e-07 -0.99961728 0
0.84213912 0.19891815 -0.33438277 0.26447082 1.5036241e-07 -0.96439368 0
0.88384098 0.19156764 -0.3209545 0.38647032 1.3089281e-07 -0.92230177 0
0.62749225 0.28288168 -0.32533428 -0.35289797 2.1021299e-07 -0.93566179 0
0.67930329 0.27963507 -0.3396644 -0.2037749 1.2678083e-07 -0.97901773 0
0.76361507 0.28182912 -0.34676248 0.038662326 1.6503088e-07 -0.99925232 0
0.84117258 0.28006163 -0.33478686 0.26276508 2.3857999e-07 -0.96485978 0
0.88312113 0.2844364 -0.32125378 0.37889135 1.5773014e-07 -0.92544121 0
0.62627506 0.35576966 -0.32490698 -0.3549459 2.2090489e-07 -0.93488687 0
0.67980027 0.35961819 -0.33983403 -0.20220564 1.5674317e-07 -0.97934312 0
0.76183647 0.36134481 -0.3466942 0.033129685 -1.9587483e-09 -0.99945104 0
0.84191483 0.35851032 -0.33455727 0.26523677 1.2756713e-07 -0.96418327 0
0.88373613 0.36566567 -0.32099921 0.3839471 1.9942416e-07 -0.9233551 0
0.62720317 0.43841237 -0.32525167 -0.35448337 1.6576195e-07 -0.93506235 0
0.67822856 0.44117627 -0.33941615 -0.20741972 8.0970331e-08 -0.97825199 0
0.76279718 0.44330174 -0.34671897 0.036662906 -2.7754593e-08 -0.99932766 0
0.83843058 0.43987384 -0.33551362 0.25542974 -1.4272536e-08 -0.96682757 0
0.88276404 0.44793323 -0.32139254 0.37933701 2.8677186e-07 -0.92525858 0
0.62693387 0.52107918 -0.32515353 -0.35285625 6.482376e-09 -0.93567759 0
0.67661804 0.51942825 -0.33906314 -0.21154416 -3.4299248e-08 -0.97736841 0
0.76111239 0.52447885 -0.34683895 0.031286359 -9.5208833e-08 -0.99951047 0
0.84009886 0.52151787 -0.33497769 0.25940499 -4.3247567e-08 -0.96576858 0
0.88268983 0.51359147 -0.32143062 0.37813398 8.5961304e-08 -0.92575085 0
0.62821192 0.5983153 -0.32564014 -0.349951 -1.7351095e-07 -0.936768 0
0.67896384 0.59858471 -0.3397218 -0.20468448 -6.5620682e-08 -0.97882801 0
0.7639237 0.59903866 -0.3467336 0.039558467 -1.2251155e-07 -0.99921727 0
0.84117568 0.59875566 -0.33472353 0.26305518 -4.833209e-08 -0.96478075 0
0.88278621 0.59591949 -0.32138699 0.38126221 -2.5203386e-07 -0.92446697 0
0.62761891 0.67227483 -0.3251344 -0.35289848 0.11294255 -0.92882001 0
0.67918092 0.6773293 -0.33661044 -0.20396867 0.33664396 -0.91927564 0
0.76282048 0.67897725 -0.3423692 0.038539577 0.40077561 -0.91536528 0
0.84017015 0.67681319 -0.33270767 0.25881219 0.28654659 -0.92244637 0
0.88400722 0.67077661 -0.32085162 0.38044435 0.14143144 -0.91392511 0
0.53217506 -0.67622703 -0.2648766 -0.59769654 -0.34705493 -0.72271144 0
0.59793758 -0.68982273 -0.28669316 -0.22375494 -0.88196272 -0.41481981 0
0.68097728 -0.69999892 -0.2780697 -2.1549187e-07 -1 5.967546e-07 0
0.76157033 -0.69999921 -0.28016651 2.0819672e-07 -1 6.0159061e-07 0
0.83961272 -0.69999897 -0.280101 -2.0855879e-07 -1 2.7294345e-07 0
0.92238349 -0.68441391 -0.28508708 0.37490809 -0.68583906 -0.62375367 0
0.98198795 -0.67750341 -0.25643295 0.65118265 -0.24009027 -0.71994299 0
0.52756256 -0.59531695 -0.26625621 -0.64100832 2.4492965e-09 -0.7675339 0
0.58501232 -0.59934121 -0.30569479 -0.47473711 1.4208663e-07 -0.88012761 0
0.92600453 -0.59838897 -0.29889292 0.50738066 6.2113578e-08 -0.86172205 0
0.98213249 -0.60111099 -0.25844806 0.66757941 3.147067e-08 -0.74453861 0
0.52933753 -0.52106166 -0.26775652 -0.63573098 3.1369012e-09 -0.77191061 0
0.58602345 -0.51819903 -0.30617681 -0.4721559 5.962162e-11 -0.88151509 0
0.92471731 -0.52098835 -0.29965001 0.50333333 5.1383282e-08 -0.86409241 0
0.98025709 -0.52117318 -0.26007313 0.6629613 2.4764804e-08 -0.74865377 0
0.52842915 -0.43986109 -0.26700601 -0.63849884 6.4529999e-09 -0.7696228 0
0.58625889 -0.44125846 -0.30630782 -0.47072059 -9.6220731e-08 -0.88228232 0
0.92670417 -0.43612123 -0.29850426 0.50922376 5.8286043e-10 -0.86063409 0
0.9809404 -0.44021913 -0.25950721 0.66463751 5.7773537e-08 -0.74716592 0
0.52781504 -0.36226913 -0.26654011 -0.63985324 6.0088276e-08 -0.76849711 0
0.58528316 -0.36028191 -0.30576152 -0.47516662 1.0081611e-08 -0.87989587 0
0.9215253 -0.35902831 -0.30146521 0.4947066 5.2080992e-08 -0.86905998 0
0.98054028 -0.36236015 -0.25981066 0.66315883 1.3784875e-08 -0.74847871 0
0.52870989 -0.27990419 -0.26726142 -0.6373542 3.2088177e-08 -0.77057099 0
0.58714533 -0.28163403 -0.30681846 -0.46902826 1.8702272e-07 -0.88318318 0
0.92260724 -0.28082159 -0.30082086 0.49834841 1.6523006e-07 -0.86697686 0
0.98147547 -0.27754956 -0.25898567 0.66604447 -7.4049247e-08 -0.74591202 0
0.52654552 -0.19964296 -0.26549137 -0.64361376 4.0081886e-08 -0.7653504 0
0.58872896 -0.19902198 -0.30765137 -0.46507415 9.5093263e-08 -0.88527173 0
0.92226577 -0.19959968 -0.3011069 0.49659047 1.0592646e-07 -0.86798489 0
0.97934574 -0.19912529 -0.26094902 0.66029489 -6.6157524e-09 -0.75100648 0
0.52946168 -0.11858644 -0.2679255 -0.63607818 1.7833671e-08 -0.77162457 0
0.5882709 -0.12058762 -0.30736253 -0.46640876 -9.1118402e-08 -0.88456929 0
0.92622656 -0.11886965 -0.29882962 0.5087533 -9.791551e-08 -0.86091232 0
0.98254335 -0.12327028 -0.25814295 0.66912836 1.5864686e-08 -0.74314678 0
0.52787858 -0.039701208 -0.26650554 -0.6400243 -1.9834141e-08 -0.76835459 0
0.58457035 -0.039454624 -0.30539218 -0.47629207 -5.487983e-08 -0.87928712 0
0.92549729 -0.039413258 -0.29923576 0.50587755 -8.2673722e-08 -0.86260527 0
0.98019958 -0.040806763 -0.26015073 0.66182262 2.0398197e-08 -0.74966049 0
0.52833825 0.037215695 -0.26685724 -0.63886565 -4.8454947e-08 -0.76931834 0
0.58704954 0.041216388 -0.30677849 -0.46817258 1.4230261e-07 -0.88363707 0
0.92302585 0.039356742 -0.30058628 0.4991776 1.1038388e-07 -0.86649972 0
0.9814778 0.041804001 -0.25897023 0.66610765 -8.5941856e-08 -0.74585563 0
0.52783275 0.11856468 -0.26650697 -0.63997358 7.1068996e-08 -0.76839685 0
0.5841279 0.11846641 -0.3051298 -0.47868663 1.0287268e-07 -0.87798584 0
0.92250401 0.11861257 -0.30099675 0.49663216 2.8206534e-08 -0.86796105 0
0.98122746 0.11772836 -0.25924143 0.66512412 -2.2277307e-09 -0.74673277 0
0.52942526 0.20010582 -0.26786777 -0.63566804 1.8975346e-07 -0.77196252 0
0.58539206 0.20156792 -0.30586958 -0.47434443 1.5934877e-08 -0.88033938 0
0.92385304 0.2034725 -0.30014652 0.50215673 4.1216179e-08 -0.86477661 0
0.98290074 0.20209172 -0.25775367 0.67088753 2.0023869e-07 -0.74155915 0
0.5261659 0.279926 -0.26494679 -0.64558524 1.1323696e-07 -0.76368827 0
0.58538693 0.28080133 -0.30586934 -0.47370365 8.9665392e-08 -0.88068432 0
0.92549467 0.27970433 -0.29920173 0.50574237 1.268898e-07 -0.86268461 0
0.98052567 0.27478111 -0.25980774 0.66373265 1.8498095e-07 -0.74796999 0
0.5277102 0.35717165 -0.26635614 -0.64114875 2.8316778e-08 -0.76741654 0
0.58547592 0.35629737 -0.30586427 -0.47334701 1.0945107e-07 -0.88087606 0
0.92276633 0.35772735 -0.30069938 0.49749485 9.1144919e-08 -0.86746699 0
0.98115623 0.35764441 -0.25929126 0.66541284 9.7514786e-08 -0.74647552 0
0.52609724 0.43610635 -0.26492962 -0.64587373 9.1388458e-08 -0.76344419 0
0.58825517 0.44429505 -0.30739197 -0.46684411 7.1508694e-08 -0.88433963 0
0.9234224 0.4415718 -0.30043307 0.49944493 1.3059684e-08 -0.86634558 0
0.98136622 0.44162998 -0.25912437 0.66477066 2.112022e-08 -0.74704748 0
0.53108323 0.51928234 -0.26918867 -0.63031614 3.7651269e-08 -0.77633858 0
0.5864346 0.52182764 -0.30634969 -0.4715932 1.6804654e-08 -0.88181621 0
0.92349845 0.52093565 -0.30040413 0.49998677 -2.0207221e-08 -0.86603302 0
0.98264575 0.52083623 -0.25795692 0.66891485 2.1562132e-08 -0.743339 0
0.53031147 0.6005922 -0.26856312 -0.63409787 -1.2495814e-09 -0.77325284 0
0.58517814 0.6018337 -0.30576634 -0.4738909 -1.0893606e-07 -0.88058358 0
0.92008638 0.60062385 -0.30231604 0.49056163 -8.488759e-09 -0.8714065 0
0.98241264 0.60403174 -0.2581723 0.66811395 3.6070087e-08 -0.74405897 0
0.53170466 0.67598748 -0.26494145 -0.60730785 0.30665043 -0.73290014 0
0.59599584 0.68740565 -0.29185978 -0.29272103 0.78068101 -0.55213374 0
0.6810692 0.69999897 -0.27956963 4.7581878e-08 1 5.1878118e-07 0
0.75984299 0.69999892 -0.28056273 1.4137882e-07 1 5.6558122e-07 0
0.84005368 0.69999868 -0.27902049 -2.9418959e-07 1 3.4325154e-07 0
0.91773129 0.68545425 -0.28646138 0.34022295 0.71527469 -0.61043465 0
0.97856271 0.67621422 -0.25897837 0.65240991 0.17639184 -0.7370531 0
0.46229151 -0.67549282 -0.19038567 -0.80443293 -0.25003317 -0.5388608 0
0.51401281 -0.69280052 -0.20591748 -0.17728584 -0.97199535 -0.15425514 0
0.59892905 -0.69999892 -0.20357801 1.8465212e-07 -1 3.8288832e-07 0
0.68086553 -0.69999909 -0.19899489 -3.6315558e-07 -1 -5.7360614e-07 0
0.76376557 -0.69999862 -0.1991858 3.3437766e-07 -1 -8.7907767e-07 0
0.84150732 -0.6999988 -0.19870527 5.47487e-08 -1 -3.8295008e-07 0
0.91909206 -0.6999988 -0.20292012 -4.1920924e-07 -1 3.6066723e-07 0
1.0043756 -0.68819803 -0.20457835 0.39610144 -0.86075783 -0.31968689 0
1.0494305 -0.67033017 -0.1753228 0.86010247 -0.079156421 -0.50394243 0
0.45900413 -0.60065728 -0.18923235 -0.83852184 5.5528357e-08 -0.54486805 0
0.48856461 -0.60556144 -0.22915669 -0.75152028 1.3413156e-08 -0.65970999 0
1.0214913 -0.60346347 -0.21652836 0.78147978 -3.2756816e-08 -0.62393069 0
1.0497727 -0.60211468 -0.17591612 0.86214846 3.0435322e-07 -0.50665575 0
0.45876968 -0.51785254 -0.18902789 -0.83885336 9.5773828e-08 -0.54435742 0
0.48973122 -0.52135408 -0.23051557 -0.74968785 9.7802433e-09 -0.66179162 0
1.0206655 -0.52280384 -0.21751878 0.77958685 1.4405476e-08 -0.62629414 0
1.0489842 -0.51866227 -0.1772574 0.86035633 9.0006914e-08 -0.50969315 0
0.46078461 -0.44130105 -0.19203679 -0.83316356 7.4580207e-08 -0.55302668 0
0.48947722 -0.44614908 -0.23019223 -0.74891734 6.155134e-08 -0.6626634 0
1.0211737 -0.44241825 -0.21696293 0.78033078 -1.3052851e-08 -0.62536699 0
1.0486022 -0.44352311 -0.17787015 0.86023027 -5.6446837e-08 -0.5099057 0
0.46172118 -0.36324847 -0.19331947 -0.83028138 5.2094695e-08 -0.55734444 0
0.48865309 -0.36154374 -0.22927316 -0.7529183 -1.1908481e-08 -0.65811402 0
1.0212067 -0.35756198 -0.21698649 0.7806294 2.7179258e-08 -0.62499416 0
1.0503819 -0.35955971 -0.17491616 0.86398923 -4.1631697e-08 -0.50351018 0
0.4604502 -0.27964622 -0.19135031 -0.83367389 1.653569e-08 -0.55225712 0
0.49043533 -0.27747047 -0.23129779 -0.74756467 -1.3710388e-07 -0.66418898 0
1.0216908 -0.27716234 -0.21633193 0.78200048 -4.204184e-08 -0.62327772 0
1.0480707 -0.28359172 -0.17873797 0.85764563 4.5291584e-09 -0.51424122 0
0.45855033 -0.20037018 -0.18853177 -0.83941585 -1.2757955e-08 -0.54348969 0
0.4881084 -0.19933601 -0.22864272 -0.75337178 3.5564589e-08 -0.65759474 0
1.0218629 -0.19947411 -0.21600941 0.78288937 2.8435178e-08 -0.62216103 0
1.0495001 -0.20296223 -0.1763415 0.86207002 -7.0115313e-08 -0.50678921 0
0.46024659 -0.12119857 -0.19122168 -0.83414078 -2.8076901e-08 -0.55155146 0
0.48941275 -0.12163018 -0.23011723 -0.74981195 -9.7878941e-09 -0.66165102 0
1.0222383 -0.12025564 -0.2155662 0.7847681 9.5688037e-08 -0.6197896 0
1.0491837 -0.12290016 -0.17697263 0.86106068 5.4226739e-09 -0.5085023 0
0.46039766 -0.037906252 -0.19124904 -0.83454651 -6.3067269e-08 -0.55093759 0
0.48877108 -0.043204553 -0.22936948 -0.75186265 -8.2954765e-10 -0.6593197 0
1.0210592 -0.042655848 -0.21710928 0.78050041 6.1738795e-08 -0.62515533 0
1.0500891 -0.043126527 -0.17532551 0.86380565 -1.114006e-07 -0.50382507 0
0.46128455 0.043533519 -0.1928961 -0.83146489 1.8424068e-07 -0.55557734 0
0.48950917 0.037990633 -0.23025188 -0.74916363 3.257604e-09 -0.66238493 0
1.0200504 0.040319923 -0.21838167 0.77711368 -5.3087764e-08 -0.62936032 0
1.0485044 0.044117808 -0.17800762 0.85947835 2.1665085e-07 -0.51117206 0
0.4601011 0.11856294 -0.19107038 -0.83519471 8.8560654e-08 -0.54995441 0
0.48940241 0.12427925 -0.2300826 -0.74945712 9.2018801e-08 -0.66205287 0
1.0224761 0.12143365 -0.21540727 0.78452653 7.9241843e-08 -0.62009525 0
1.049237 0.11580769 -0.17681961 0.86106843 1.8859598e-07 -0.50848907 0
0.4593167 0.19981954 -0.18982774 -0.83770627 -7.8687471e-08 -0.54612106 0
0.48838028 0.19996364 -0.22893564 -0.75332552 1.3396662e-07 -0.65764791 0
1.0218915 0.20093402 -0.21609342 0.78287262 -1.5313782e-08 -0.62218207 0
1.0501159 0.20318912 -0.17531043 0.86317396 -1.6368787e-07 -0.50490671 0
0.45753163 0.28218767 -0.18700968 -0.84284163 -3.7409084e-08 -0.53816175 0
0.48997167 0.28309944 -0.23075759 -0.74772835 4.0848494e-08 -0.6640048 0
1.0207046 0.27982888 -0.21762574 0.7793383 -3.4213803e-09 -0.62660342 0
1.0483613 0.28215867 -0.17830575 0.85791522 -1.3005744e-07 -0.51379132 0
0.45955041 0.35937661 -0.19022591 -0.83618027 5.7132731e-08 -0.5484547 0
0.48916802 0.3632108 -0.22982882 -0.75099933 4.0944471e-08 -0.66030288 0
1.0223231 0.35731131 -0.21548295 0.78467703 7.8012619e-08 -0.61990494 0
1.0508198 0.36246932 -0.17417781 0.8649779 4.5786109e-08 -0.50180978 0
0.46173525 0.44135681 -0.1934884 -0.83026725 -7.3636203e-10 -0.55736548 0
0.49068248 0.44496939 -0.23153791 -0.74644709 8.6466088e-08 -0.66544479 0
1.0218852 0.44169718 -0.21609607 0.78315681 8.5128704e-08 -0.62182426 0
1.0503141 0.44134802 -0.17497247 0.86399019 6.3615893e-08 -0.50350863 0
0.4589875 0.5185219 -0.18941562 -0.83807743 -2.5976849e-08 -0.5455513 0
0.48935524 0.51747227 -0.23006426 -0.74916238 2.9272535e-08 -0.66238636 0
1.0210313 0.51621509 -0.2171391 0.78037697 2.3698619e-09 -0.62530941 0
1.0503688 0.52071649 -0.17489326 0.86457604 3.1692689e-08 -0.50250208 0
0.45857465 0.60403067 -0.1887061 -0.83958 5.4789324e-09 -0.54323614 0
0.48894525 0.60320437 -0.22955047 -0.75115246 -6.4648025e-09 -0.66012877 0
1.0210396 0.60326558 -0.21717724 0.78021246 3.4776622e-09 -0.62551457 0
1.049428 0.60017741 -0.17646927 0.86147612 -1.511338e-07 -0.50779814 0
0.46137977 0.67332166 -0.18883999 -0.80662137 0.26206595 -0.52979571 0
0.51325828 0.69462991 -0.20443 -0.20068896 0.96345133 -0.17744158 0
0.59851289 0.69999886 -0.20364337 2.4175006e-07 1 4.3963169e-07 0
0.68088317 0.69999921 -0.20095968 -3.524807e-07 1 -5.2272412e-07 0
0.7644363 0.69999909 -0.20094214 1.5399945e-09 1 -1.2248341e-06 0
0.83969295 0.69999892 -0.20294635 2.4935167e-07 1 -5.8806194e-07 0
0.91762948 0.69999903 -0.19978537 -2.7974369e-07 1 4.6175469e-07 0
1.007316 0.68686152 -0.20531413 0.46591055 0.80438918 -0.36862627 0
1.0498585 0.67245847 -0.17560998 0.8631413 0.037727382 -0.50355113 0
0.43603763 -0.68174493 -0.11938348 -0.76159912 -0.58235687 -0.28430119 0
0.51988822 -0.69999903 -0.11862861 4.5195199e-07 -1 8.563913e-08 0
0.59619588 -0.69999909 -0.12224585 -7.3101359e-07 -1 -8.4079716e-07 0
0.68177807 -0.6999988 -0.11586916 4.2173266e-07 -1 -4.9261968e-07 0
0.75998604 -0.69999909 -0.11704729 4.4575252e-08 -1 1.0771357e-07 0
0.83659798 -0.69999868 -0.12029769 1.3274629e-07 -1 -1.9822028e-07 0
0.92068732 -0.69999903 -0.1194934 4.8559127e-07 -1 -2.8604654e-07 0
1.0037926 -0.69999933 -0.11849239 -5.8539092e-07 -1 2.5268565e-07 0
1.0678321 -0.68121207 -0.12104293 0.80407143 -0.50894755 -0.30731341 0
0.42490941 -0.59922445 -0.12104867 -0.93690848 7.5000671e-08 -0.34957474 0
1.0745875 -0.5999701 -0.12213877 0.93629766 7.2496526e-08 -0.35120755 0
0.42319813 -0.51894116 -0.11623286 -0.94232458 8.2198184e-08 -0.33470041 0
1.0746944 -0.52082604 -0.12226865 0.93587494 -3.1693567e-08 -0.35233235 0
0.42504248 -0.43929282 -0.12094794 -0.93717206 2.4327701e-08 -0.34886762 0
1.0751476 -0.43758208 -0.12061321 0.93742746 -3.3177788e-08 -0.34818059 0
0.42340094 -0.3572197 -0.11739553 -0.94095868 2.0775939e-08 -0.33852142 0
1.0762371 -0.36034077 -0.11754778 0.94064921 1.6914715e-08 -0.33938035 0
0.42561093 -0.28117868 -0.12286193 -0.93514359 -1.7762138e-08 -0.35426888 0
1.0744361 -0.27956545 -0.12280693 0.93499309 -4.3850299e-08 -0.35466602 0
0.4243159 -0.20066597 -0.11940384 -0.93873751 -6.6623905e-08 -0.34463298 0
1.0754434 -0.2004326 -0.12033562 0.93791884 -7.5766856e-08 -0.34685484 0
0.4247584 -0.11819942 -0.12020002 -0.93786609 -2.7252108e-08 -0.34699738 0
1.0756953 -0.11789194 -0.11929394 0.93876225 8.6448033e-08 -0.34456563 0
0.42510721 -0.03998534 -0.12147168 -0.93638855 -7.2351203e-10 -0.35096496 0
1.0763339 -0.039894529 -0.11762488 0.94085729 1.0534382e-07 -0.33880311 0
0.42471248 0.038233839 -0.12011048 -0.93822604 9.9034359e-08 -0.3460229 0
1.0756727 0.038600706 -0.11947718 0.93900651 1.5215257e-07 -0.34389943 0
0.42504796 0.11925494 -0.12117231 -0.93689954 -2.2562014e-08 -0.34959885 0
1.0749199 0.12266783 -0.12161577 0.93635035 1.5787874e-07 -0.35106692 0
0.42372519 0.20115484 -0.11752584 -0.94076467 -6.6360549e-08 -0.33906016 0
1.0751675 0.20119053 -0.12073461 0.93752849 -6.1453271e-08 -0.34790865 0
0.42441696 0.28301236 -0.11948384 -0.93868756 5.3087106e-08 -0.34476918 0
1.0752685 0.27989626 -0.12071977 0.9375841 -1.6091758e-07 -0.34775856 0
0.42442751 0.36008641 -0.11971509 -0.93856454 1.0730059e-07 -0.34510365 0
1.076823 0.35939229 -0.11609277 0.94207525 -1.9689772e-08 -0.33540151 0
0.4247368 0.43826362 -0.12052942 -0.93785828 5.9353578e-08 -0.34701839 0
1.0742161 0.44320351 -0.12323502 0.93481982 8.6134733e-08 -0.35512224 0
0.4255347 0.51832902 -0.12239543 -0.93576777 -3.485763e-09 -0.35261679 0
1.074772 0.52182335 -0.12172808 0.93617588 3.3723829e-08 -0.35153198 0
0.42486408 0.60094291 -0.12083235 -0.9374578 -4.022975e-08 -0.34809905 0
1.0771495 0.60013402 -0.11533932 0.9433648 -6.6407338e-08 -0.33175731 0
0.43512183 0.68205267 -0.11988201 -0.79101479 0.5348261 -0.29708013 0
0.5184657 0.6999988 -0.12373778 4.8260569e-07 1 2.7669012e-07 0
0.60055172 0.69999897 -0.11928035 -5.4030608e-07 1 -3.842467e-07 0
0.67994547 0.6999988 -0.12016868 -2.7469846e-07 1 -1.0828347e-07 0
0.75648957 0.69999909 -0.11878702 -8.5081587e-07 1 8.5847205e-08 0
0.84200305 0.69999897 -0.11798207 4.5566082e-07 1 -6.489301e-07 0
0.92018664 0.69999903 -0.11960916 4.9815952e-07 1 -8.5469264e-07 0
0.99932003 0.69999903 -0.11816473 -5.3616333e-07 1 1.9335192e-07 0
1.0697559 0.67989606 -0.12019701 0.86450326 0.38447875 -0.323744 0
0.42657697 -0.68585914 -0.039440356 -0.62451154 -0.77737296 -0.075343736 0
0.52407402 -0.69999927 -0.038343925 -3.093264e-07 -1 1.0053547e-07 0
0.60065019 -0.69999874 -0.042349052 -8.2374942e-07 -1 -4.0849363e-07 0
0.68108445 -0.69999897 -0.03748551 3.4991589e-07 -1 8.4269189e-08 0
0.76266277 -0.69999915 -0.040469393 3.2646952e-07 -1 1.3048137e-07 0
0.83808661 -0.69999897 -0.038219932 0 -1 0 0
0.91977715 -0.69999874 -0.042553645 5.5638799e-07 -1 -1.0009047e-07 0
0.99897277 -0.69999892 -0.040797807 -3.7592906e-07 -1 2.1263151e-07 0
1.0820659 -0.68450624 -0.03778401 0.7379716 -0.669218 -0.086863123 0
0.40559795 -0.59791225 -0.042324096 -0.99243754 9.5608158e-08 -0.12275052 0
1.0947531 -0.59884697 -0.039349623 0.9934606 2.291757e-07 -0.11417502 0
0.40523261 -0.51971358 -0.039136525 -0.99361008 3.4564785e-08 -0.1128668 0
1.0946326 -0.52066499 -0.039213009 0.99353701 1.126267e-07 -0.11350859 0
0.40539402 -0.44050029 -0.040108349 -0.99328035 -4.4999391e-09 -0.11573277 0
1.0946369 -0.43938011 -0.04005738 0.99318928 -5.6085781e-08 -0.11651161 0
0.40478697 -0.36180404 -0.035217248 -0.99485433 1.6581323e-08 -0.10131592 0
1.0945648 -0.35936105 -0.041101076 0.99301934 -1.4213452e-07 -0.117952 0
0.40535262 -0.28108251 -0.039751049 -0.99329817 1.294966e-09 -0.11558004 0
1.0946352 -0.27934772 -0.04009508 0.99322784 -1.2991383e-07 -0.11618277 0
0.40527436 -0.2003148 -0.039857775 -0.99319625 5.8501389e-08 -0.11645257 0
1.0947145 -0.20033832 -0.038878921 0.99370027 -6.3607089e-08 -0.11207023 0
0.40549469 -0.12380379 -0.041995939 -0.99260616 3.2918519e-09 -0.12137939 0
1.0944262 -0.1222213 -0.041551754 0.99285465 6.6091563e-09 -0.11933043 0
0.40546796 -0.039878987 -0.040881064 -0.99297118 -3.8069292e-08 -0.11835631 0
1.0947949 -0.038718946 -0.038320966 0.99376154 -5.4113398e-09 -0.11152544 0
0.40523025 0.040000457 -0.039350126 -0.99340481 4.3123421e-08 -0.11465984 0
1.0943455 0.044605769 -0.042113051 0.99267304 2.1484922e-08 -0.12083171 0
0.40590775 0.11963743 -0.043956697 -0.99184638 7.6292032e-08 -0.12743951 0
1.0946206 0.1163095 -0.040191859 0.99318832 -6.0866299e-09 -0.11652026 0
0.40533039 0.1981011 -0.040190458 -0.99312639 6.7810674e-08 -0.11704715 0
1.0947345 0.2024222 -0.038519986 0.99379253 -6.3354827e-10 -0.111249 0
0.40528446 0.28181702 -0.039000556 -0.99360907 -2.6953325e-08 -0.11287592 0
1.0947539 0.27616942 -0.039130654 0.99366587 -4.4808527e-08 -0.11237468 0
0.40520296 0.36042479 -0.038417414 -0.99375886 -3.3652324e-08 -0.11154938 0
1.0946102 0.35971799 -0.040338669 0.99313778 1.3762457e-07 -0.11695061 0
0.40548202 0.43950289 -0.040658731 -0.99316019 8.6209893e-09 -0.11675964 0
1.0944976 0.43829075 -0.041386612 0.99281996 1.8941628e-07 -0.11961839 0
0.40546864 0.51815116 -0.041396879 -0.99280339 -5.8852976e-08 -0.11975588 0
1.0944657 0.51910537 -0.041698135 0.99284953 -1.5553107e-08 -0.11937203 0
0.40524611 0.60095054 -0.038769674 -0.99376351 -1.2335371e-07 -0.11150836 0
1.0947992 0.60068393 -0.039062373 0.9935143 -1.6986337e-07 -0.11370753 0
0.42785993 0.68870807 -0.039806187 -0.56121105 0.82487994 -0.067935057 0
0.52180558 0.69999886 -0.039454933 -1.6484884e-07 1 2.1973889e-07 0
0.59981984 0.69999915 -0.040171955 -3.3177241e-07 1 -2.1820335e-07 0
0.67709595 0.69999886 -0.040475916 0 1 0 0
0.75727051 0.69999921 -0.038861964 -5.0781659e-07 1 3.3026214e-07 0
0.83854455 0.69999874 -0.040663887 -4.4987362e-07 1 8.3845713e-08 0
0.92025548 0.69999892 -0.038434964 1.0830421e-06 1 -4.2655466e-07 0
1.0004193 0.69999909 -0.04037511 -3.9769421e-07 1 4.6736275e-07 0
1.0819386 0.68600059 -0.038483813 0.6946972 0.7148807 -0.079633579 0
0.42801523 -0.68730634 0.037855163 -0.57250208 -0.81757754 0.061711919 0
0.51734364 -0.69999927 0.041784927 -5.3706906e-08 -1 -9.6516942e-08 0
0.59982634 -0.69999892 0.039125886 -1.0244272e-06 -1 -4.0589319e-07 0
0.67843205 -0.69999921 0.038564034 6.5131985e-07 -1 -3.4342786e-08 0
0.7612536 -0.69999921 0.04073406 9.8776013e-08 -1 -3.9634131e-07 0
0.83651477 -0.69999927 0.042521998 6.9440844e-08 -1 -5.6988654e-08 0
0.91873074 -0.69999903 0.042303205 5.2250198e-07 -1 2.1454042e-07 0
1.0001155 -0.69999874 0.036490228 -3.9273689e-07 -1 -2.054323e-07 0
1.0800607 -0.68586594 0.038158007 0.67431164 -0.73458964 0.075378984 0
0.4054777 -0.59589487 0.041069463 -0.99293661 1.1635907e-07 0.11864609 0
1.0948662 -0.59871638 0.038338371 0.99380434 6.9998421e-08 0.11114377 0
0.40538698 -0.52228522 0.040979207 -0.99300766 5.8757095e-08 0.11805003 0
1.0949227 -0.52011234 0.037306536 0.99421602 2.0573168e-08 0.10739899 0
0.40501717 -0.44167119 0.036279265 -0.99452955 8.9166541e-09 0.10445528 0
1.0943354 -0.4399921 0.042336665 0.99239349 -9.2432003e-08 0.12310624 0
0.40584913 -0.36144713 0.043322239 -0.99216664 -3.6760579e-08 0.12492188 0
1.0948274 -0.35956028 0.03866788 0.99373335 -4.7933973e-08 0.11177664 0
0.40578306 -0.28024557 0.043164164 -0.99214238 -7.7743579e-08 0.12511367 0
1.0952147 -0.27986559 0.035480823 0.99478048 1.3698578e-07 0.10203823 0
0.40577957 -0.19790339 0.043992419 -0.99188232 -2.1851724e-08 0.127159 0
1.0950648 -0.20209105 0.036248196 0.99434406 2.1580149e-07 0.10620686 0
0.40536842 -0.12384236 0.0405504 -0.99308264 -4.4606171e-08 0.11741725 0
1.094632 -0.11874998 0.040832058 0.99300474 -1.1676222e-07 0.1180741 0
0.40527335 -0.037949279 0.039018001 -0.99361628 -5.8820643e-08 0.11281281 0
1.0948249 -0.040800467 0.038374193 0.99378437 -3.2362429e-08 0.11132234 0
0.40515813 0.040823448 0.038358897 -0.99383432 3.2572213e-08 0.11087533 0
1.0948634 0.037244178 0.038201679 0.99375278 1.0915948e-08 0.11160397 0
0.40517196 0.11950944 0.038787693 -0.99370664 5.3166719e-08 0.1120141 0
1.0946668 0.12033461 0.039412577 0.99351901 8.9910266e-08 0.11366598 0
0.40531892 0.20273274 0.039153785 -0.99365538 -1.6442677e-08 0.1124678 0
1.0947987 0.1995495 0.039044727 0.99357259 1.1128878e-07 0.11319649 0
0.40573588 0.28097582 0.042245042 -0.99233758 -3.9609304e-08 0.12355689 0
1.0947438 0.2826204 0.039810687 0.99345589 -2.9266646e-08 0.11421607 0
0.40544266 0.36151987 0.04044655 -0.9932245 3.3340683e-08 0.11621173 0
1.0944414 0.36198196 0.04178793 0.99275917 -1.2004585e-07 0.12012123 0
0.40535146 0.43900982 0.03976965 -0.99343628 4.5437268e-08 0.11438704 0
1.0945799 0.43796307 0.040431567 0.99303967 -6.4193365e-08 0.11778022 0
0.40561628 0.52116936 0.042503685 -0.99238688 -3.7398554e-08 0.12315925 0
1.094391 0.5179249 0.04215483 0.992607 -9.8649352e-08 0.12137317 0
0.40523458 0.60383308 0.039156906 -0.99350202 -7.5670137e-08 0.11381499 0
1.0947057 0.60039687 0.038902871 0.99358517 -1.4421109e-07 0.1130868 0
0.42711279 0.68856841 0.040471099 -0.56450993 0.82255113 0.068834119 0
0.51862919 0.69999892 0.03678203 -2.8855863e-08 1 -3.277367e-07 0
0.59993851 0.69999897 0.040879894 -3.3706726e-07 1 1.2429021e-07 0
0.67935824 0.6999988 0.038949486 -6.2311337e-08 1 -3.3306108e-08 0
0.76313782 0.69999903 0.040323678 -5.0705614e-07 1 -1.5344354e-07 0
0.83902931 0.69999862 0.036400232 -2.1022888e-07 1 -3.4028301e-07 0
0.91603822 0.69999903 0.035488501 1.1290507e-06 1 5.2309133e-07 0
1.0000672 0.69999892 0.041041225 -3.8802514e-07 1 -4.179031e-07 0
1.082631 0.68240386 0.040897414 0.77260947 0.62738901 0.097250357 0
0.43680611 -0.68455559 0.11873624 -0.71692437 -0.64396161 0.26708218 0
0.52035916 -0.69999909 0.1223798 5.064237e-07 -1 -2.6275956e-07 0
0.60063285 -0.69999892 0.11903456 -9.5847201e-07 -1 1.0428996e-06 0
0.68130231 -0.6999988 0.1216514 -7.1872643e-07 -1 5.0010732e-07 0
0.76183587 -0.69999892 0.11873331 8.7722429e-07 -1 -1.2149796e-07 0
0.838018 -0.6999988 0.12180429 5.6733444e-07 -1 1.7716292e-07 0
0.91680849 -0.69999874 0.12539816 4.8177833e-07 -1 3.4616255e-07 0
0.99890321 -0.6999988 0.12197763 -6.2786052e-07 -1 -6.4692045e-08 0
1.0695578 -0.68142223 0.11643162 0.81892979 -0.49378222 0.29246056 0
0.42523181 -0.59663337 0.12196022 -0.93609929 6.9619531e-08 0.35173577 0
1.0759704 -0.59986496 0.11870193 0.93967557 6.5836474e-09 0.34206691 0
0.42583048 -0.52027208 0.12345324 -0.93469995 6.5778356e-09 0.35543779 0
1.0752834 -0.52063453 0.12052803 0.93772107 4.6432124e-08 0.3473891 0
0.4245047 -0.4397558 0.11979757 -0.93853068 -6.7763857e-08 0.34519571 0
1.0747397 -0.43800223 0.12183921 0.93620437 4.3157495e-08 0.35145605 0
0.42458296 -0.35879695 0.11995755 -0.93829477 -4.690618e-08 0.34583679 0
1.0766022 -0.35869688 0.11673605 0.94143289 3.3808167e-08 0.3372004 0
0.4251301 -0.27766663 0.12120536 -0.93692851 -2.5296259e-08 0.34952125 0
1.0758712 -0.27949053 0.11877337 0.93945134 -1.4671839e-09 0.34268236 0
0.42417103 -0.19991848 0.11909404 -0.93914855 -5.0527294e-08 0.3435114 0
1.0754201 -0.2020815 0.11998677 0.9382897 -9.3029868e-08 0.34585029 0
0.42507252 -0.11910121 0.12112796 -0.93690175 -6.2416348e-08 0.34959269 0
1.0750071 -0.12030543 0.12109686 0.9372378 -4.8325525e-08 0.34869096 0
0.42471758 -0.03594112 0.12040064 -0.93770826 -6.6551372e-08 0.34742364 0
1.0760171 -0.039113075 0.11840405 0.93983513 -1.3845982e-07 0.34162849 0
0.42540604 0.039316468 0.12224476 -0.9356873 1.0924438e-07 0.35283023 0
1.0760976 0.039439961 0.1180643 0.94049001 1.0293305e-07 0.33982137 0
0.4246783 0.11623909 0.12008708 -0.93835092 1.6796044e-08 0.34568414 0
1.0752794 0.1215547 0.12037854 0.93780071 -1.4131767e-07 0.34717417 0
0.42485109 0.19741619 0.12066891 -0.93773121 -8.6476042e-08 0.34736177 0
1.0759424 0.20004891 0.1187165 0.93956482 -9.3958043e-08 0.34237093 0
0.42357713 0.2813561 0.11732846 -0.94119608 1.3215139e-08 0.33786091 0
1.0746949 0.27966401 0.1215966 0.93666738 1.0832331e-07 0.35022032 0
0.42457014 0.36060813 0.11986671 -0.9384259 5.9666803e-08 0.34548056 0
1.0746783 0.36020535 0.12198234 0.93606359 9.2741551e-08 0.35183093 0
0.42453551 0.43977416 0.11995407 -0.93866634 4.114689e-08 0.34482679 0
1.0745038 0.43729335 0.12260045 0.93550038 -5.5255395e-08 0.35332558 0
0.42433769 0.51790339 0.11951443 -0.9390803 -4.9429261e-08 0.34369788 0
1.0745618 0.51949501 0.12231583 0.93609774 -8.8020684e-08 0.35174006 0
0.42484105 0.60211861 0.12088896 -0.93697184 -1.0262391e-07 0.34940475 0
1.075651 0.59760368 0.11934543 0.93911195 -1.0303609e-08 0.34361139 0
0.4377532 0.68429029 0.11905426 -0.66914737 0.69888133 0.25259995 0
0.52056301 0.69999897 0.12037198 5.0587926e-07 1 -6.4550676e-08 0
0.60089785 0.69999892 0.11939756 -5.2422303e-07 1 3.3600003e-07 0
0.68108988 0.6999988 0.11952149 -8.6046026e-07 1 -1.2414509e-07 0
0.76208043 0.69999897 0.12227258 7.8408746e-08 1 2.5823056e-07 0
0.84084332 0.69999892 0.12066554 7.8076874e-07 1 8.5525284e-07 0
0.92047578 0.69999874 0.12071268 8.2118135e-07 1 1.9336727e-07 0
1.0018272 0.69999886 0.12170133 -5.5743055e-07 1 -1.5300795e-07 0
1.0693966 0.67989171 0.1201257 0.82886106 0.46359715 0.31315637 0
0.46268466 -0.67523348 0.19138032 -0.81627905 -0.18237567 0.54811287 0
0.51489222 -0.69455409 0.20465188 -0.17461106 -0.97259563 0.153521 0
0.60189563 -0.69999892 0.20200795 1.0786343e-07 -1 -2.857451e-07 0
0.67663145 -0.69999892 0.19586211 -2.3159984e-07 -1 9.3382084e-07 0
0.76034319 -0.6999988 0.19705942 4.3214169e-07 -1 1.4092029e-06 0
0.83852363 -0.69999892 0.20190002 1.1079174e-08 -1 5.1214874e-07 0
0.91766155 -0.69999892 0.20178799 -4.1442098e-07 -1 -3.2881005e-07 0
1.0065393 -0.68677932 0.20668826 0.47428557 -0.79206789 0.38429374 0
1.0488759 -0.67121238 0.1763325 0.85813439 -0.088975787 0.50565672 0
0.46055189 -0.60080349 0.19161205 -0.83352232 7.0825905e-08 0.55248576 0
0.49028248 -0.60555136 0.23109387 -0.74717569 4.1034223e-08 0.66462648 0
1.0198661 -0.60318977 0.21850534 0.77739775 9.0906029e-09 0.62900931 0
1.0498214 -0.59996819 0.17586002 0.86283475 3.1325865e-07 0.50548613 0
0.45866773 -0.52151668 0.18879385 -0.83936888 -4.8603056e-08 0.54356217 0
0.48847505 -0.51700884 0.22905293 -0.75351906 -2.9727982e-08 0.657426 0
1.0207508 -0.51875907 0.21748194 0.77959341 -3.8240135e-08 0.62628591 0
1.0503234 -0.51554298 0.17496559 0.86449528 5.6567867e-08 0.50264096 0
0.4585948 -0.43897349 0.18856083 -0.83958149 -1.1602788e-07 0.54323381 0
0.48967412 -0.44227701 0.23043267 -0.74867815 -1.1385495e-07 0.66293371 0
1.023581 -0.44239324 0.21394314 0.78772843 -4.4965901e-08 0.61602259 0
1.0499141 -0.44017911 0.17564389 0.86331964 -1.3728989e-07 0.50465745 0
0.45904887 -0.36272612 0.18927149 -0.83750105 -4.4579888e-08 0.54643565 0
0.48898184 -0.3581354 0.22961812 -0.75044334 -1.0613107e-07 0.66093487 0
1.0198215 -0.35873878 0.21868095 0.77726763 -1.0410017e-07 0.62917 0
1.0499399 -0.35872975 0.17559597 0.86312807 -5.3180017e-08 0.50498509 0
0.45837808 -0.27900055 0.18837203 -0.84046209 -9.9040118e-09 0.54187036 0
0.48999259 -0.27395946 0.23077282 -0.74863017 -1.1195771e-07 0.66298783 0
1.0216345 -0.28010717 0.21644254 0.78285015 -8.7310752e-08 0.62221032 0
1.0498521 -0.28086153 0.17575973 0.86287564 1.2914289e-07 0.50541621 0
0.46023217 -0.19659339 0.19115669 -0.83481663 -5.8080301e-09 0.55052811 0
0.48999459 -0.19901671 0.23077226 -0.74944872 -9.908684e-08 0.66206235 0
1.0227672 -0.20028158 0.21489498 0.78548455 -5.9830349e-08 0.61888129 0
1.0493478 -0.19920932 0.17666532 0.86066484 -4.4653813e-08 0.50917172 0
0.45900786 -0.11731076 0.18916254 -0.83848941 -8.1976964e-08 0.54491788 0
0.48840529 -0.11947828 0.22896753 -0.75365788 -8.6455884e-08 0.65726691 0
1.0217149 -0.11635847 0.21625939 0.78323573 -1.6962709e-07 0.62172484 0
1.0498333 -0.12182069 0.17579433 0.86254054 -2.2766615e-07 0.50598788 0
0.45859739 -0.041011199 0.18860139 -0.83922803 -5.7514001e-08 0.54377973 0
0.48942971 -0.042047553 0.23014277 -0.75039214 -3.4411915e-08 0.66099298 0
1.0221555 -0.041643411 0.21572593 0.78365213 -1.8804761e-07 0.62119997 0
1.050316 -0.044473231 0.17493898 0.86381173 -1.8108729e-07 0.50381464 0
0.46050489 0.037977513 0.19158824 -0.83423102 -2.3232726e-08 0.55141497 0
0.48837206 0.042586897 0.22892372 -0.7520557 -9.6238175e-08 0.65909964 0
1.020069 0.040046949 0.21828493 0.77776933 1.3663122e-08 0.62854981 0
1.0501381 0.043590974 0.17524816 0.86398858 1.4416908e-07 0.50351143 0
0.45828611 0.1219775 0.18829 -0.840303 4.4586585e-08 0.542117 0
0.48867789 0.12252522 0.22931281 -0.75139141 -9.0961677e-08 0.6598568 0
1.0223788 0.11881995 0.21550094 0.78365731 5.6654059e-08 0.62119335 0
1.0483773 0.11763033 0.1782904 0.858603 1.3174852e-07 0.51264107 0
0.45998448 0.19975218 0.19076785 -0.83559531 -3.5673875e-08 0.54934549 0
0.48826048 0.200946 0.22881398 -0.75132674 3.5876454e-08 0.65993035 0
1.0211167 0.19894813 0.2169776 0.78088176 1.2224899e-07 0.62467891 0
1.0498753 0.19769819 0.17571795 0.86291808 -1.655295e-07 0.50534379 0
0.45884177 0.27780807 0.18886149 -0.83933336 -5.0043493e-08 0.54361707 0
0.48910445 0.28146839 0.22978039 -0.75170547 2.2191252e-08 0.65949887 0
1.0228283 0.28034979 0.21483169 0.78569782 -6.9005814e-09 0.6186105 0
1.049493 0.28007877 0.17642714 0.86154729 -7.0983887e-08 0.50767744 0
0.45896393 0.3619847 0.1891721 -0.83863962 -1.4589912e-08 0.54468662 0
0.48890179 0.36263195 0.22955091 -0.75101632 2.2046073e-08 0.66028368 0
1.0219575 0.3569268 0.21602425 0.78317213 -5.8359117e-08 0.62180501 0
1.0491116 0.36086449 0.17705889 0.86067557 7.6884223e-09 0.50915378 0
0.4575015 0.44106868 0.18711707 -0.84263682 1.5978168e-08 0.53848231 0
0.4892818 0.44251296 0.22997198 -0.75172156 2.7988305e-08 0.65948069 0
1.0211556 0.44109586 0.21700425 0.78023016 -3.1981973e-08 0.62549257 0
1.0499469 0.43954387 0.17563277 0.86267281 3.9794241e-08 0.50576246 0
0.46040079 0.52085942 0.19154005 -0.83351976 7.5537123e-09 0.55248964 0
0.48818654 0.51982754 0.22871089 -0.75382441 1.5887684e-08 0.657076 0
1.0216458 0.5220049 0.21635424 0.78220916 1.6523803e-08 0.62301594 0
1.0480471 0.52353901 0.17881133 0.85750836 -1.6100428e-07 0.51446998 0
0.45949116 0.60017002 0.18999246 -0.83662301 -6.9505028e-08 0.54777902 0
0.48812202 0.59588379 0.22863714 -0.75419343 1.4293891e-08 0.65665239 0
1.0204058 0.59992105 0.21790911 0.77939963 3.3960372e-08 0.62652719 0
1.0496314 0.59908557 0.17614514 0.86261272 -2.1490308e-07 0.50586486 0
0.46004 0.67443597 0.18687485 -0.81303954 0.24478312 0.52824986 0
0.51408195 0.69508207 0.20537306 -0.16618016 0.97545648 0.14446047 0
0.60218018 0.69999897 0.19831516 1.230476e-07 1 -1.5019424e-07 0
0.67943555 0.69999892 0.19997784 1.6210134e-08 1 9.2053239e-07 0
0.7617349 0.69999874 0.20223591 -5.931631e-08 1 1.1869712e-06 0
0.83783472 0.69999939 0.20168528 2.5582884e-07 1 5.1020703e-07 0
0.92092532 0.69999886 0.20079961 -3.4444213e-07 1 -4.0309774e-07 0
1.0069658 0.68830675 0.20473146 0.42196772 0.84186053 0.33647296 0
1.048992 0.67654824 0.17481202 0.85206759 0.15342964 0.50043988 0
0.53108591 -0.67765844 0.2641243 -0.60638672 -0.31501383 0.73011047 0
0.59584224 -0.68863147 0.28810519 -0.25744817 -0.84059197 0.47657701 0
0.68206936 -0.69999897 0.2789945 1.6566106e-07 -1 -4.1992755e-07 0
0.75917488 -0.69999909 0.27767727 2.2513285e-07 -1 -6.0351903e-07 0
0.84148908 -0.69999892 0.28206065 -1.416569e-07 -1 -2.8705557e-07 0
0.91847825 -0.68595213 0.28636229 0.34677508 -0.70799589 0.61521453 0
0.97822767 -0.67542732 0.26018891 0.64789182 -0.19630708 0.7360025 0
0.53026527 -0.59900862 0.26862916 -0.6325435 4.0175285e-09 0.77452487 0
0.58773416 -0.60034859 0.3069869 -0.46761754 1.1282146e-07 0.88393092 0
0.92445463 -0.60087174 0.29986617 0.50317448 9.8743982e-08 0.8641848 0
0.98063505 -0.6015386 0.25978974 0.66392344 9.1840562e-09 0.74780047 0
0.5291419 -0.52121413 0.26764405 -0.63722414 2.018295e-08 0.77067852 0
0.58516842 -0.51924008 0.30566379 -0.47523183 5.8939722e-08 0.87986064 0
0.92237329 -0.51979154 0.30099905 0.49689168 1.0408876e-08 0.86781257 0
0.98202813 -0.51578987 0.25849739 0.66666257 -6.5554473e-09 0.74535966 0
0.52824575 -0.43984857 0.26681381 -0.63945925 3.2839129e-08 0.76882505 0
0.58705974 -0.43775663 0.30667287 -0.46839762 -2.4805351e-08 0.88351786 0
0.92380267 -0.43843699 0.30007526 0.50125957 -6.7570809e-08 0.86529696 0
0.9829939 -0.4392435 0.25761306 0.66947663 -1.0317628e-08 0.7428332 0
0.53008509 -0.35871598 0.26844472 -0.63382 -6.946636e-08 0.77348053 0
0.58797836 -0.35665286 0.30718151 -0.46666583 -8.3284313e-08 0.88443369 0
0.92288679 -0.35968506 0.30082685 0.49793443 -1.2113377e-07 0.86721468 0
0.9814949 -0.36153805 0.25897342 0.666677 -7.3468598e-08 0.74534667 0
0.52934009 -0.28053144 0.26773694 -0.6357308 -2.2278076e-07 0.77191085 0
0.5894655 -0.28012353 0.30799532 -0.46296039 -1.3589666e-07 0.88637894 0
0.92250109 -0.27836102 0.3009246 0.49697202 -1.2602833e-07 0.86776662 0
0.98007566 -0.27977881 0.26022199 0.66285306 -2.3333375e-07 0.74874955 0
0.52667999 -0.20027032 0.26551017 -0.6436187 -1.8132786e-07 0.76534629 0
0.58879024 -0.20245035 0.30767787 -0.46482787 -1.1664624e-07 0.88540107 0
0.92273802 -0.19724154 0.30085546 0.49812928 -9.7793503e-08 0.8671028 0
0.98179954 -0.19576691 0.25875014 0.66739142 -1.4672928e-07 0.74470717 0
0.52846557 -0.12111814 0.26707774 -0.63795692 -2.9974537e-08 0.7700721 0
0.58616894 -0.11959383 0.30627316 -0.47196618 -8.4512465e-08 0.88161665 0
0.92443478 -0.11958183 0.29991812 0.50158232 -6.1450052e-08 0.86510998 0
0.98360151 -0.12146001 0.25700793 0.67226958 -2.9025903e-08 0.74030638 0
0.53033656 -0.040480658 0.26852298 -0.63344961 -7.1302082e-08 0.77378386 0
0.58557487 -0.040256098 0.3058334 -0.47318539 -8.0810743e-08 0.88096285 0
0.92562407 -0.03867273 0.29917586 0.50618112 -4.300254e-08 0.86242718 0
0.98203057 -0.036842603 0.25849807 0.66764319 -8.7362679e-08 0.74448144 0
0.52713895 0.036546815 0.26592302 -0.64174646 -3.3790716e-08 0.76691687 0
0.5868386 0.042312697 0.30656478 -0.46943659 1.1117083e-07 0.88296616 0
0.92197657 0.039554615 0.30118787 0.4963378 1.3335278e-07 0.86812943 0
0.98148757 0.039398238 0.2590262 0.66653651 -1.4429001e-07 0.74547237 0
0.52912074 0.12014297 0.2676748 -0.63635385 1.3832895e-08 0.77139723 0
0.58813214 0.12088589 0.30733806 -0.46639723 3.6496431e-08 0.88457549 0
0.92265296 0.12113185 0.30082816 0.49787393 9.8739804e-08 0.86724937 0
0.98268205 0.12356419 0.25784993 0.67008901 3.6843772e-08 0.74228072 0
0.52760911 0.19744389 0.26622629 -0.64044029 -3.8175795e-08 0.76800793 0
0.58675289 0.19950166 0.30649316 -0.47053492 -1.9382793e-07 0.88238138 0
0.92477 0.20332028 0.29967663 0.50415039 -2.0271244e-07 0.86361593 0
0.98228967 0.19875082 0.25830215 0.66887999 1.8829331e-08 0.74337035 0
0.52791262 0.27564898 0.26668406 -0.63963872 -5.7444545e-08 0.76867568 0
0.58650696 0.281261 0.3064774 -0.47073108 -1.9688997e-07 0.88227683 0
0.92323554 0.27862316 0.30043158 0.49881232 -2.0751555e-07 0.86671013 0
0.9804067 0.27904251 0.25991198 0.66288447 -1.1712684e-07 0.74872172 0
0.52683586 0.3574641 0.26577309 -0.64267808 -1.673474e-08 0.76613635 0
0.5873239 0.36133397 0.3068274 -0.46896234 2.9635538e-08 0.88321811 0
0.92581207 0.359988 0.29898795 0.50704074 -4.8535082e-08 0.86192214 0
0.98144025 0.36051154 0.25903621 0.66604692 -4.5728093e-08 0.74590987 0
0.52491915 0.43828064 0.26411083 -0.64796036 -4.0624311e-08 0.76167405 0
0.58617288 0.43825477 0.30623272 -0.47211835 5.0189676e-08 0.88153517 0
0.92450881 0.44121772 0.29982513 0.5031864 3.8244153e-08 0.86417794 0
0.98147762 0.44220293 0.25906095 0.6654892 5.7482382e-08 0.74640751 0
0.52683467 0.52014303 0.26560608 -0.64363021 1.2276311e-09 0.76533663 0
0.58713269 0.52003688 0.30666035 -0.46973789 -3.7950596e-08 0.88280594 0
0.92618668 0.52121884 0.29886365 0.50717533 9.4490984e-09 0.86184287 0
0.98099715 0.51784867 0.25944942 0.6649428 5.4959145e-08 0.74689424 0
0.52948111 0.5968731 0.26796001 -0.63514996 7.2912819e-08 0.77238894 0
0.58468282 0.60092688 0.30543613 -0.4759278 -4.9918999e-08 0.87948436 0
0.92283005 0.60094899 0.30060622 0.49806699 -8.9814982e-08 0.86713856 0
0.97845489 0.60025632 0.26164618 0.65787399 7.7396116e-09 0.75312799 0
0.5312475 0.6771245 0.26397073 -0.5982812 0.34377828 0.72379285 0
0.59757274 0.68813843 0.28952709 -0.26180267 0.82808208 0.4957211 0
0.68454093 0.6999988 0.2797049 -1.9444049e-07 1 -6.4708797e-07 0
0.7582435 0.69999892 0.27733478 2.24133e-07 1 -6.155521e-07 0
0.83802688 0.69999915 0.27920297 -2.9618005e-07 1 -4.2525829e-07 0
0.92374295 0.68359488 0.28480467 0.39561072 0.64065021 0.65807253 0
0.97923195 0.67611516 0.25865892 0.63306606 0.30258223 0.71251059 0
0.6260857 -0.67509449 0.3246277 -0.35485187 -0.074810527 0.93192464 0
0.68148023 -0.67719144 0.33696651 -0.18880741 -0.35650295 0.91501766 0
0.75725114 -0.68160659 0.34227911 0.017889809 -0.48757952 0.87289524 0
0.83627772 -0.67447102 0.33468175 0.24680603 -0.1884968 0.95055544 0
0.8834489 -0.66974282 0.32111153 0.38530692 1.3282117e-07 0.92278844 0
0.62740976 -0.59790093 0.32529905 -0.35391822 8.0217958e-08 0.93527639 0
0.68375909 -0.60058004 0.34050214 -0.19145304 5.2013739e-08 0.98150182 0
0.76034427 -0.6003086 0.34675333 0.029636068 7.2440351e-08 0.99956071 0
0.84364223 -0.60142988 0.33407557 0.27022135 7.4521665e-08 0.96279818 0
0.88311762 -0.58839881 0.32125011 0.38006073 1.4547904e-07 0.92496151 0
0.6254862 -0.51572794 0.32460013 -0.35871822 4.8644946e-08 0.93344587 0
0.68060935 -0.52261657 0.33996031 -0.20026115 5.7828355e-08 0.97974259 0
0.7599088 -0.51842886 0.34684634 0.028583553 -1.4985053e-08 0.99959141 0
0.84203887 -0.52387094 0.33457661 0.26484439 2.5101171e-08 0.96429116 0
0.88291585 -0.52200925 0.32133448 0.38382062 9.3917649e-08 0.92340761 0
0.62676287 -0.43917531 0.32505956 -0.3566213 8.6592635e-08 0.93424904 0
0.67583048 -0.4387275 0.33890206 -0.21315059 1.2066893e-08 0.97701937 0
0.75875115 -0.43734777 0.34680262 0.025053523 -7.2088788e-08 0.99968612 0
0.83919293 -0.43791047 0.33530733 0.25648162 -3.3677001e-09 0.9665491 0
0.8836506 -0.44143912 0.32102934 0.38578027 1.3131351e-07 0.92259073 0
0.62756211 -0.35878125 0.3253693 -0.35221115 -1.5789404e-08 0.93592054 0
0.68042064 -0.36010948 0.33980176 -0.20033963 -8.5051987e-08 0.97972649 0
0.76061088 -0.36076882 0.34673396 0.030710531 -8.072719e-08 0.99952823 0
0.84289461 -0.35937291 0.33425376 0.26729512 -8.7805496e-08 0.96361476 0
0.8825677 -0.36787149 0.3214806 0.3758553 5.2125696e-08 0.92667836 0
0.62847006 -0.27489775 0.32571134 -0.35086596 -1.8424265e-07 0.93642563 0
0.67852092 -0.28038973 0.33950105 -0.20588644 -1.7501516e-07 0.97857589 0
0.75916129 -0.2802467 0.34681129 0.025473066 -1.238849e-07 0.99967551 0
0.84270942 -0.27924162 0.33425036 0.26745093 -2.1934365e-07 0.96357149 0
0.88337827 -0.27761337 0.32113785 0.38334781 -5.6708797e-07 0.92360407 0
0.62556565 -0.20176236 0.32462925 -0.36005831 -2.7465308e-07 0.93292981 0
0.67675126 -0.19850233 0.33915585 -0.21079615 -1.6764736e-07 0.97753006 0
0.76174152 -0.19838685 0.34676781 0.033301685 -1.2179015e-07 0.99944532 0
0.84138799 -0.19916801 0.33466667 0.26380059 -2.050817e-07 0.9645772 0
0.88372749 -0.20382594 0.32099929 0.38592938 -2.7857715e-07 0.92252833 0
0.62632328 -0.11994631 0.32489136 -0.35545367 1.1267291e-10 0.93469393 0
0.67924434 -0.12019105 0.33964959 -0.20308684 -1.7243849e-08 0.97916073 0
0.76102012 -0.11838914 0.34671652 0.031609531 -1.0261174e-07 0.99950033 0
0.84384888 -0.11782971 0.33403274 0.27045837 -4.3786944e-08 0.96273172 0
0.88350606 -0.11648126 0.3210828 0.38495806 1.572518e-07 0.92293406 0
0.62824339 -0.042929441 0.32562596 -0.35108691 -1.034866e-07 0.9363429 0
0.68073016 -0.037990823 0.34000498 -0.19890995 -7.84022e-09 0.98001772 0
0.75716656 -0.039924063 0.34697229 0.020652162 -7.8553683e-08 0.99978673 0
0.84173453 -0.038948908 0.33453205 0.26560679 -6.2341094e-08 0.96408147 0
0.88232219 -0.04765027 0.32157281 0.37984318 -7.9838429e-08 0.92505091 0
0.62802005 0.038257848 0.32556206 -0.35033324 9.8593041e-08 0.93662518 0
0.67967069 0.040929835 0.33981496 -0.20217486 -2.5488204e-08 0.97934943 0
0.76213193 0.038078222 0.34680203 0.03530442 8.9130943e-08 0.9993766 0
0.84247738 0.037684884 0.33437777 0.26564598 1.5428878e-07 0.96407062 0
0.8828572 0.041031867 0.32135335 0.38268521 1.2276814e-07 0.92387885 0
0.62486494 0.12555011 0.32433286 -0.36101308 -1.2558945e-07 0.9325608 0
0.6784693 0.11814 0.33954009 -0.20600066 3.3832823e-08 0.97855181 0
0.76046532 0.12070743 0.34688726 0.029537586 1.3115309e-07 0.99956369 0
0.84055442 0.1192568 0.33487254 0.25992003 2.633641e-08 0.96563011 0
0.88350725 0.12703082 0.32108757 0.38552538 0 0.92269725 0
0.62684041 0.19822851 0.3250978 -0.35382551 -2.3664984e-07 0.93531138 0
0.68160683 0.20044634 0.34013999 -0.19684669 -1.0912115e-07 0.98043424 0
0.76061583 0.20092444 0.34693384 0.0303647 -1.7021482e-07 0.99953884 0
0.84308517 0.2006759 0.33422327 0.26889476 -1.8968927e-07 0.96316952 0
0.88333613 0.20686308 0.32115895 0.38430822 -8.9952493e-08 0.92320484 0
0.62589991 0.28343678 0.32473204 -0.35722047 1.1523276e-08 0.9340201 0
0.67800456 0.28202218 0.33937624 -0.20761131 -1.6050649e-07 0.97821134 0
0.76026434 0.28129303 0.34682938 0.029701546 -2.920348e-07 0.99955875 0
0.83834451 0.27823818 0.3355203 0.255485 -1.9527415e-07 0.96681309 0
0.88340539 0.28818947 0.32113099 0.38646963 0 0.92230213 0
0.62778115 0.36007097 0.3254649 -0.35067737 9.9508263e-08 0.93649638 0
0.68180662 0.35966358 0.34007689 -0.19618815 -4.5843869e-08 0.98056626 0
0.75985581 0.36028731 0.34680963 0.02873536 -6.5558815e-08 0.99958706 0
0.8394767 0.36215287 0.33524749 0.25801498 3.3875757e-08 0.96614093 0
0.88288385 0.35552686 0.32135177 0.38268429 6.8051563e-08 0.92387915 0
0.62735879 0.44194737 0.32531944 -0.35248345 -1.2827463e-08 0.93581802 0
0.68131202 0.44209212 0.34006137 -0.19763809 -4.684432e-09 0.98027503 0
0.75691241 0.43860441 0.346838 0.019531125 7.9601001e-08 0.99980927 0
0.83951575 0.44150409 0.33524007 0.25738692 8.4679897e-08 0.96630847 0
0.8827706 0.44072238 0.3213973 0.38371742 1.3419292e-07 0.92345053 0
0.62601781 0.52033919 0.32478765 -0.35646695 -5.5323525e-08 0.93430793 0
0.67885321 0.52001816 0.33955571 -0.20435238 -5.5443675e-08 0.97889739 0
