# .PCD v0.7 - Point Cloud Data file format
VERSION 0.7
FIELDS x y z normal_x normal_y normal_z curvature
SIZE 4 4 4 4 4 4 4
TYPE F F F F F F F
COUNT 1 1 1 1 1 1 1
WIDTH 672
HEIGHT 1
VIEWPOINT 0 0 0 1 0 0 0
POINTS 672
DATA ascii
0.87248671 -0.51313543 0.076520734 -0.36844015 1.8194022e-08 -0.9296515 0
0.9184975 -0.52237809 0.062790371 -0.23519006 2.670163e-09 -0.9719494 0
0.99884862 -0.51825476 0.052973293 -0.002925083 2.5367671e-08 -0.99999571 0
1.0820981 -0.5208444 0.062922873 0.23811352 6.8613801e-08 -0.97123736 0
1.1291863 -0.5192306 0.077177875 0.3707521 6.0143584e-08 -0.92873192 0
0.87077385 -0.43802971 0.077201508 -0.37182707 -7.4213884e-09 -0.92830205 0
0.91975397 -0.43803564 0.062552065 -0.23156364 -4.547692e-08 -0.97281975 0
1.0031252 -0.44208357 0.053073049 0.0095937205 -5.6628711e-08 -0.99995404 0
1.0786167 -0.44086668 0.062007498 0.22713748 5.1466881e-08 -0.97386271 0
1.1284679 -0.43778595 0.076898642 0.36860898 8.8131415e-08 -0.9295845 0
0.87359667 -0.36176258 0.076081805 -0.36096361 7.1789934e-08 -0.93257987 0
0.91999483 -0.36204934 0.062294092 -0.2300723 4.2310759e-08 -0.9731735 0
1.0029359 -0.36247125 0.05302839 0.0079764957 1.2237695e-08 -0.99996823 0
1.0804174 -0.36484241 0.062494382 0.23208663 2.9334016e-08 -0.97269511 0
1.1285434 -0.36122426 0.07693474 0.36917228 1.5495563e-07 -0.92936105 0
0.87354302 -0.2808131 0.07611315 -0.36322537 1.3610196e-07 -0.9317013 0
0.9209345 -0.28152779 0.062241651 -0.22759412 8.8484875e-08 -0.97375607 0
0.99706918 -0.28060928 0.053010162 -0.00789678 2.2091525e-07 -0.99996883 0
1.0809025 -0.27767327 0.06261389 0.23298998 1.5083343e-07 -0.97247916 0
1.1286168 -0.27826869 0.076962203 0.36901045 7.2389774e-08 -0.9294253 0
0.87228602 -0.2015059 0.076591946 -0.3687574 -7.8228286e-09 -0.92952561 0
0.92122072 -0.19944164 0.06218921 -0.22683182 1.7731553e-08 -0.97393399 0
0.99909425 -0.20333041 0.052972849 -0.003567039 2.2843876e-07 -0.99999362 0
1.0830207 -0.20152399 0.063078493 0.24020046 1.0939701e-07 -0.97072327 0
1.1276535 -0.19735543 0.076576255 0.3669723 -3.4199449e-08 -0.93023193 0
0.87221676 -0.11729698 0.076632097 -0.36543441 -5.6508803e-08 -0.93083704 0
0.92178684 -0.11855841 0.062107608 -0.22510229 -3.9812448e-08 -0.97433513 0
1.0002954 -0.12010336 0.053009875 0.001357997 -6.3685192e-08 -0.99999911 0
1.0790631 -0.12402256 0.062242389 0.22765595 -4.9323116e-08 -0.97374165 0
1.1279496 -0.12192909 0.076686792 0.3672621 -7.9377507e-08 -0.93011743 0
0.8726427 -0.042599589 0.076462664 -0.365854 -1.9352855e-07 -0.93067229 0
0.9191882 -0.040024165 0.062537208 -0.23197216 2.8357292e-08 -0.97272241 0
1.0024462 -0.038712721 0.05308678 0.0068194764 -6.7868783e-08 -0.99997669 0
1.0796663 -0.038098466 0.062264066 0.23066284 -2.5066834e-08 -0.97303373 0
1.1280394 -0.043840714 0.076733835 0.36682308 -2.724199e-08 -0.9302907 0
0.8718338 0.046550553 0.076776497 -0.36740661 2.2284846e-07 -0.93006045 0
0.91994643 0.040599741 0.062431768 -0.2311693 1.1632584e-07 -0.97291356 0
1.0028901 0.037984956 0.053079702 0.0080049941 6.2198602e-08 -0.99996793 0
1.0786998 0.042595971 0.062115852 0.22731082 -6.4338851e-10 -0.9738223 0
1.128021 0.039559081 0.076729052 0.36748707 8.9915119e-08 -0.93002868 0
0.87119007 0.11749838 0.077027477 -0.37314591 1.3701559e-07 -0.9277727 0
0.92010945 0.11849945 0.062369071 -0.22861408 -2.1593172e-08 -0.97351718 0
0.99752927 0.11929556 0.053014386 -0.0070982315 9.8351833e-08 -0.99997479 0
1.0770087 0.11990092 0.061715022 0.22255494 -1.7001991e-08 -0.97492015 0
1.128052 0.11539911 0.076727025 0.36644801 -3.4064609e-08 -0.93043852 0
0.87358731 0.1984612 0.076074526 -0.3644354 6.3173381e-08 -0.9312287 0
0.91920394 0.19866131 0.062643699 -0.23288187 6.440699e-08 -0.97250509 0
1.001279 0.19868118 0.052969441 0.0028109855 1.8550395e-07 -0.99999607 0
1.0797122 0.19694735 0.06241395 0.22837515 1.879303e-07 -0.97357321 0
1.1278803 0.19927743 0.076662891 0.36851165 -8.414915e-09 -0.92962319 0
0.87078965 0.27320984 0.077204049 -0.37048185 2.3820414e-07 -0.92883974 0
0.92068803 0.27927795 0.062208708 -0.22860728 1.7922048e-07 -0.97351873 0
1.0028859 0.28193107 0.05304043 0.0077882768 1.3012901e-07 -0.99996966 0
1.0794501 0.28140479 0.062301323 0.22881098 2.1842239e-07 -0.97347087 0
1.1280404 0.28040484 0.076736368 0.36758921 2.0188294e-07 -0.92998832 0
0.8720991 0.35908267 0.076670028 -0.36621666 1.6745655e-07 -0.93052959 0
0.92062956 0.35935032 0.062249206 -0.22883767 1.944904e-07 -0.97346467 0
0.99981189 0.36142874 0.053023092 -0.00093630486 -9.0098675e-09 -0.99999952 0
1.0805153 0.35777795 0.062650584 0.23143749 1.1206531e-07 -0.97284979 0
1.1292206 0.3604506 0.07719703 0.37325165 1.0821363e-07 -0.92773014 0
0.87345552 0.43872514 0.076138385 -0.36258271 9.9513521e-08 -0.93195158 0
0.91827607 0.43967563 0.062865272 -0.23643886 7.7377329e-08 -0.97164643 0
1.0016956 0.44476619 0.053032316 0.0044679665 -1.4635168e-08 -0.99999005 0
1.0790805 0.44179976 0.062193546 0.22819251 -1.0673971e-08 -0.973616 0
1.1282514 0.43377128 0.076811872 0.37129468 5.2318828e-08 -0.92851508 0
0.87288266 0.51971799 0.076360814 -0.36443663 -3.4932256e-08 -0.93122822 0
0.91594523 0.51990503 0.063349098 -0.24217701 -3.5291496e-08 -0.97023207 0
1.0011402 0.52203685 0.053048018 0.0023385789 -6.6991745e-08 -0.99999726 0
1.0784061 0.52217966 0.061962336 0.22559562 -4.8630049e-08 -0.97422105 0
1.1275091 0.52083385 0.076517187 0.36639956 -2.3649027e-10 -0.93045759 0
0.87363809 0.60203165 0.076058179 -0.36245662 -1.9334789e-07 -0.93200058 0
0.91932696 0.59675705 0.062610872 -0.23245655 -5.8538792e-08 -0.97260678 0
1.004882 0.59751254 0.052951731 0.014121342 -1.3201631e-07 -0.99990028 0
1.0788708 0.60076678 0.062229816 0.22733502 -5.9899222e-08 -0.97381663 0
1.1278908 0.6036433 0.076666154 0.36803293 -5.9941996e-08 -0.92981267 0
0.87311435 0.67397439 0.076523021 -0.36648569 0.068813406 -0.92787552 0
0.91870987 0.6755048 0.064964086 -0.23290715 0.27841896 -0.93179244 0
1.0011046 0.68070161 0.058128361 0.0056136982 0.4797501 -0.87738729 0
1.0798131 0.67667925 0.064928196 0.22441751 0.29592612 -0.92847437 0
1.1288073 0.67729944 0.077142566 0.36837223 0.1065501 -0.92355233 0
0.77652532 -0.67664671 0.13898532 -0.61872905 -0.3193199 -0.71778065 0
0.83797342 -0.68714797 0.11294481 -0.30229959 -0.78611004 -0.53911597 0
0.91857946 -0.69999892 0.12156947 -1.9750122e-07 -1 5.1393295e-07 0
0.99992579 -0.69999909 0.12062942 -7.0633721e-09 -1 5.9017452e-07 0
1.0787109 -0.69999909 0.12075483 4.2542801e-08 -1 3.7649366e-07 0
1.1617783 -0.68626034 0.11244565 0.31328321 -0.770693 -0.55487478 0
1.2242177 -0.67914253 0.13872795 0.6182242 -0.31938586 -0.71818626 0
0.77310354 -0.59637463 0.13725738 -0.6537354 2.1835802e-08 -0.75672323 0
0.82986724 -0.59813416 0.09744782 -0.48965508 1.0625154e-07 -0.87191617 0
1.1708307 -0.60000002 0.097866245 0.49146801 8.7665001e-08 -0.87089568 0
1.2274225 -0.60132623 0.13769841 0.65479112 6.810798e-08 -0.7558099 0
0.77538955 -0.51834345 0.1352327 -0.64682984 3.7085519e-09 -0.7626344 0
0.8305431 -0.52022439 0.097028822 -0.48840684 -3.0879486e-09 -0.87261605 0
1.1695535 -0.52068269 0.097162835 0.48792741 5.5634931e-08 -0.87288421 0
1.2249869 -0.52102518 0.13560337 0.64851516 7.2199342e-08 -0.7612018 0
0.77254522 -0.44062439 0.13759448 -0.65507734 -1.4959477e-08 -0.75556189 0
0.82958734 -0.44120631 0.097633906 -0.48998693 -5.4977757e-08 -0.87172979 0
1.1698146 -0.4373979 0.097207122 0.48854685 -1.746548e-08 -0.87253761 0
1.2244953 -0.44010064 0.13520296 0.64702284 3.6166714e-08 -0.76247054 0
0.77092683 -0.3596912 0.13909177 -0.65978765 -1.5054635e-08 -0.75145215 0
0.83033323 -0.36028251 0.097148471 -0.48840079 2.032402e-08 -0.87261939 0
1.166639 -0.35773924 0.095575668 0.48004657 6.5305656e-08 -0.87724304 0
1.2268302 -0.35921174 0.1370834 0.65268737 2.8413588e-08 -0.75762743 0
0.77335143 -0.2789191 0.13700092 -0.65302956 2.0706612e-09 -0.7573325 0
0.83316588 -0.28132749 0.095545784 -0.47910824 1.4160712e-07 -0.87775582 0
1.1667148 -0.28170016 0.09553206 0.48042819 1.9379033e-07 -0.87703401 0
1.2236786 -0.27863538 0.13450171 0.64485759 1.2228577e-07 -0.76430279 0
0.77412832 -0.19904545 0.13633963 -0.65026528 9.0140922e-08 -0.75970727 0
0.83415043 -0.19954076 0.095069423 -0.47728941 4.946153e-08 -0.87874615 0
1.1691148 -0.20065539 0.096861981 0.48687416 1.3787962e-07 -0.87347215 0
1.2261164 -0.19879165 0.13658915 0.65084678 5.862055e-08 -0.75920916 0
0.77360088 -0.1199226 0.1366874 -0.65246499 1.2390458e-08 -0.75781882 0
0.83075613 -0.12145427 0.096916765 -0.48706436 -2.3288036e-09 -0.87336612 0
1.1719297 -0.11548816 0.098479211 0.49473029 -1.4806169e-07 -0.86904657 0
1.2266815 -0.12142032 0.13698258 0.65303481 -1.4331327e-07 -0.75732785 0
0.77308965 -0.04156395 0.13726096 -0.65377492 -6.5289576e-08 -0.75668907 0
0.83059514 -0.03469 0.097146504 -0.48876947 3.9087027e-08 -0.87241304 0
1.1699136 -0.041596659 0.097357497 0.48934036 -1.3997699e-07 -0.87209284 0
1.2269255 -0.040317081 0.13716948 0.65339023 -1.3471382e-07 -0.75702131 0
0.77283365 0.036264539 0.13749041 -0.65420628 -7.0027298e-08 -0.75631624 0
0.83091098 0.039809473 0.096888714 -0.48615816 5.9568542e-08 -0.87387085 0
1.1678534 0.040793981 0.096256047 0.48394424 1.740643e-07 -0.87509882 0
1.2260056 0.040212743 0.13642743 0.65075868 9.6317365e-08 -0.75928468 0
0.77311355 0.12024827 0.13723265 -0.65331566 6.8899098e-08 -0.75708556 0
0.8291958 0.1194302 0.097800598 -0.49211198 3.956232e-08 -0.87053192 0
1.1686918 0.1195996 0.096713424 0.48527941 6.2111845e-08 -0.87435913 0
1.2291577 0.11802685 0.13917352 0.65950108 1.5845383e-07 -0.75170374 0
0.77468228 0.20036083 0.13585237 -0.64916241 1.9861577e-07 -0.7606498 0
0.83023399 0.20032926 0.09717381 -0.48897249 1.0116939e-07 -0.87229919 0
1.168048 0.20143412 0.096236922 0.48453918 -4.2892175e-08 -0.87476957 0
1.2256781 0.20381688 0.13620172 0.65148854 8.5756362e-08 -0.75865841 0
0.76995462 0.28026843 0.13998525 -0.66315168 1.0706498e-07 -0.74848509 0
0.82978702 0.28141916 0.097462125 -0.49021402 1.6399088e-07 -0.87160212 0
1.1696371 0.27843553 0.097153947 0.48849091 3.1914283e-08 -0.87256908 0
1.2270408 0.27669951 0.13741867 0.65408486 8.2588173e-08 -0.75642115 0
0.77170813 0.35779539 0.13836727 -0.65811735 5.4577992e-08 -0.75291544 0
0.83021611 0.358336 0.097236581 -0.48844966 1.0099011e-07 -0.87259209 0
1.1685927 0.35701102 0.096670963 0.48525691 9.8589751e-08 -0.87437165 0
1.2271292 0.35675359 0.13740297 0.65408075 -5.5545017e-09 -0.75642478 0
0.77161568 0.43635836 0.13863336 -0.6580714 1.5263555e-07 -0.7529555 0
0.83392227 0.44162074 0.095196068 -0.47949371 4.751858e-09 -0.8775453 0
1.1686193 0.44230014 0.096665986 0.48528939 4.4182478e-08 -0.87435359 0
1.2267997 0.44118986 0.13711324 0.65404892 6.1887931e-08 -0.7564522 0
0.77388269 0.51977128 0.13647698 -0.6510632 6.3307972e-08 -0.75902349 0
0.83028728 0.52082759 0.097299151 -0.48949972 -1.1712332e-08 -0.87200338 0
1.1685176 0.52299726 0.096428908 0.4853805 -2.5722089e-08 -0.87430304 0
1.2279021 0.51869071 0.13813891 0.65525848 1.0374782e-08 -0.75540483 0
0.77491671 0.59988552 0.13564625 -0.64974165 -1.6500968e-08 -0.76015508 0
0.8287484 0.60037965 0.098029926 -0.49275872 -7.4735134e-08 -0.870166 0
1.1664627 0.6011731 0.095450483 0.47980797 -3.2742157e-08 -0.87737352 0
1.229399 0.60096312 0.13937892 0.66021276 -3.456644e-08 -0.75107855 0
0.77446979 0.67526758 0.13917118 -0.63842964 0.23665725 -0.73239398 0
0.83738667 0.6854527 0.1108088 -0.34125093 0.71307057 -0.61243629 0
0.92132884 0.69999909 0.11827533 -5.6346611e-08 1 4.7638963e-07 0
0.99921423 0.69999886 0.1195958 -6.7898888e-08 1 5.6839559e-07 0
1.079036 0.6999988 0.12079902 -3.2667018e-08 1 4.0113781e-07 0
1.1608593 0.68763351 0.11377872 0.29300055 0.79572278 -0.53007168 0
1.2235125 0.67689317 0.13861121 0.62607324 0.28208461 -0.72695291 0
0.70773339 -0.674339 0.21495616 -0.82588392 -0.20214447 -0.52635866 0
0.75330669 -0.69022793 0.19425081 -0.30053222 -0.92052215 -0.24963872 0
0.83990514 -0.69999897 0.19701019 2.2643704e-07 -1 4.65217e-07 0
0.92098594 -0.69999903 0.20045584 -2.1178349e-07 -1 -4.6507336e-07 0
1.0057867 -0.69999874 0.20123805 1.587559e-07 -1 -9.1063879e-07 0
1.080093 -0.6999988 0.20023495 6.1551034e-08 -1 -4.8762274e-07 0
1.1590258 -0.69999874 0.19745168 -2.5641245e-07 -1 2.9938238e-07 0
1.2452199 -0.69135535 0.19385912 0.30380687 -0.91743886 -0.25691873 0
1.2945888 -0.67369264 0.21825653 0.83139008 -0.22083463 -0.50992405 0
0.70392179 -0.60191876 0.21829425 -0.85257626 5.563588e-08 -0.52260292 0
0.73300266 -0.60269213 0.17757416 -0.76744926 3.2747213e-08 -0.6411097 0
1.2661159 -0.60201156 0.17657149 0.76547474 6.709e-09 -0.64346594 0
1.2940898 -0.60170043 0.21515763 0.84641111 2.9941965e-08 -0.53253007 0
0.70614427 -0.51628745 0.21483114 -0.84607929 1.7799516e-07 -0.53305703 0
0.73505032 -0.52194393 0.17511502 -0.76267499 1.5826123e-08 -0.64678192 0
1.2652018 -0.52090919 0.17542437 0.76348066 2.7610124e-08 -0.64583069 0
1.294474 -0.51807886 0.21568467 0.84788054 3.4638187e-08 -0.53018743 0
0.70591438 -0.43991363 0.21506149 -0.84719992 1.5333137e-07 -0.53127414 0
0.73429275 -0.43783736 0.17605141 -0.76407826 5.5003703e-08 -0.64512366 0
1.2656659 -0.44386953 0.17595059 0.76380628 6.1723505e-08 -0.64544553 0
1.2940688 -0.44464734 0.2150273 0.84693193 2.9669227e-08 -0.53170133 0
0.70512342 -0.36081225 0.21643552 -0.84913707 6.3440936e-08 -0.52817255 0
0.73366565 -0.36054954 0.17676087 -0.76628125 -1.0746478e-08 -0.64250535 0
1.2663214 -0.36250651 0.17680646 0.76698428 7.5331181e-09 -0.64166588 0
1.2946779 -0.36137885 0.21607511 0.84815186 3.5934622e-09 -0.52975321 0
0.70433712 -0.27895829 0.21765369 -0.85065842 9.6379194e-10 -0.52571875 0
0.73400551 -0.27707213 0.17635882 -0.76517451 -4.7077311e-08 -0.64382297 0
1.2650483 -0.27949083 0.17522644 0.76319689 -1.1994382e-07 -0.64616609 0
1.2941612 -0.27955061 0.2151875 0.84646267 4.1669681e-09 -0.53244817 0
0.70496941 -0.19925964 0.21666278 -0.84914672 -1.9233847e-08 -0.52815706 0
0.73263806 -0.20097861 0.17799005 -0.76966661 -4.3782724e-09 -0.63844609 0
1.2661048 -0.19777699 0.17649522 0.76567304 8.2494118e-08 -0.6432299 0
1.2946663 -0.19866453 0.2160743 0.84842801 3.054172e-08 -0.5293107 0
0.70582664 -0.12037082 0.21518748 -0.846192 -3.035613e-08 -0.53287816 0
0.73393476 -0.12265857 0.17644194 -0.76592577 1.633688e-09 -0.64292908 0
1.2665358 -0.12009738 0.17704445 0.76722926 2.5832984e-08 -0.64137292 0
1.2935374 -0.12068342 0.21418178 0.84510446 2.1429281e-08 -0.53460115 0
0.70413405 -0.038355399 0.21799281 -0.85251111 -9.2582013e-08 -0.52270901 0
0.7333892 -0.042603225 0.1770819 -0.76716429 4.1374253e-08 -0.6414507 0
1.2651849 -0.041268364 0.17539987 0.76286381 -1.272312e-09 -0.6465593 0
1.2945694 -0.042227566 0.21592997 0.848355 1.9540158e-08 -0.52942783 0
0.70617002 0.042214986 0.21453211 -0.84567028 2.2420153e-07 -0.53370571 0
0.73326546 0.040622443 0.17727132 -0.76733685 -1.9794054e-08 -0.64124423 0
1.2672734 0.044862781 0.17787792 0.7688061 6.4586899e-08 -0.63948196 0
1.2941365 0.041728996 0.21520372 0.84644413 8.1523005e-08 -0.53247756 0
0.70520419 0.11831544 0.21617498 -0.84856832 3.5492665e-08 -0.52908581 0
0.73324692 0.12161099 0.17731877 -0.76766127 5.1797219e-08 -0.64085585 0
1.2662073 0.1189298 0.17665611 0.76632857 2.7037748e-07 -0.64244884 0
1.2945521 0.11731679 0.21578059 0.84828252 1.3040808e-07 -0.52954394 0
0.70491123 0.20058425 0.21664093 -0.84977263 -1.4001742e-07 -0.52714926 0
0.73383319 0.19891724 0.1765631 -0.765926 7.3354599e-08 -0.64292872 0
1.2662963 0.19886243 0.17672499 0.76681143 3.6325581e-08 -0.64187247 0
1.2950385 0.20230731 0.21667735 0.84949547 1.8596273e-08 -0.52759594 0
0.70413363 0.28211594 0.21801758 -0.8514666 -1.414966e-08 -0.52440894 0
0.7359767 0.28243589 0.17406107 -0.75924307 5.3755947e-08 -0.6508072 0
1.2659185 0.2790826 0.17627652 0.76588023 -1.3412634e-07 -0.64298326 0
1.2938559 0.28181306 0.21468811 0.8455866 -7.7023472e-08 -0.53383833 0
0.70529974 0.36180401 0.21601036 -0.84807789 2.2691793e-08 -0.52987158 0
0.73376995 0.36327571 0.176641 -0.76586097 9.04693e-08 -0.64300621 0
1.2663624 0.35830495 0.17683309 0.76774883 -4.3354042e-08 -0.64075094 0
1.294667 0.3631824 0.21603839 0.84804064 3.6088874e-08 -0.52993113 0
0.70688325 0.43996179 0.21354835 -0.84351611 -7.851915e-08 -0.53710383 0
0.73445505 0.44393829 0.17589897 -0.76484406 6.538091e-08 -0.64421535 0
1.2666636 0.4419682 0.17717524 0.76755649 2.1811275e-07 -0.64098132 0
1.2947354 0.44156104 0.21624303 0.84862918 1.2922038e-07 -0.52898812 0
0.70540237 0.51772368 0.21589832 -0.8482582 -3.7781874e-08 -0.5295828 0
0.73467225 0.52216452 0.17556232 -0.76403528 1.123348e-08 -0.6451745 0
1.2661098 0.51661474 0.1764766 0.76612532 2.1127322e-07 -0.64269125 0
1.295963 0.51943845 0.21811894 0.85212475 1.412905e-08 -0.52333856 0
0.70491958 0.60135174 0.21669179 -0.84982538 4.2235413e-08 -0.52706444 0
0.73396623 0.60100627 0.17645742 -0.76535439 -1.4814953e-08 -0.64360917 0
1.2675235 0.60189724 0.178211 0.76989043 -6.9636918e-08 -0.63817614 0
1.2944901 0.60056239 0.21573468 0.84752947 -6.0627329e-08 -0.53074837 0
0.70550102 0.67253351 0.21846849 -0.83413064 0.19414227 -0.51627016 0
0.75453264 0.69185543 0.19591251 -0.26482561 0.93761158 -0.22528167 0
0.83753973 0.69999886 0.19673429 3.2498846e-07 1 4.0929606e-07 0
0.91995192 0.69999909 0.19794072 -1.9647399e-07 1 -3.5434661e-07 0
1.0029291 0.69999927 0.19930817 2.4202444e-08 1 -1.1050778e-06 0
1.0778657 0.69999886 0.19783682 1.1393872e-07 1 -8.1944057e-07 0
1.1573424 0.69999892 0.19899981 -1.282355e-07 1 3.7271167e-07 0
1.2479639 0.69122964 0.19461843 0.31030604 0.91413444 -0.26089913 0
1.2935555 0.67360067 0.21569493 0.84242135 0.11620964 -0.52613837 0
0.68515193 -0.68240958 0.28170818 -0.74162382 -0.61278373 -0.27292895 0
0.76158881 -0.69999903 0.28070077 5.4991472e-07 -1 9.0510007e-08 0
0.83832669 -0.69999903 0.27672058 -7.7466848e-07 -1 -6.6122732e-07 0
0.923531 -0.69999909 0.28297281 6.1873777e-07 -1 -8.1427009e-07 0
0.99848318 -0.69999909 0.28401566 1.6274656e-07 -1 -3.0608993e-09 0
1.0784512 -0.69999868 0.27995282 1.0078386e-07 -1 -1.6611618e-07 0
1.1595587 -0.69999903 0.27985293 5.4207391e-07 -1 -3.4623946e-07 0
1.240646 -0.69999921 0.28054792 -5.8992106e-07 -1 1.8253209e-07 0
1.3157016 -0.68298954 0.28036264 0.76472884 -0.57569009 -0.28943169 0
0.67500705 -0.60208875 0.27875972 -0.93688202 3.9233974e-08 -0.34964564 0
1.3247808 -0.60042274 0.27831259 0.93640089 5.9168489e-08 -0.35093221 0
0.6743294 -0.52094907 0.2806288 -0.93878287 7.737443e-08 -0.34450942 0
1.3241721 -0.5176053 0.27664575 0.93459558 4.4357307e-08 -0.35571191 0
0.67482418 -0.43978518 0.27950802 -0.93742663 5.7387208e-08 -0.34818283 0
1.3251889 -0.43957445 0.27941185 0.93752658 5.8498422e-08 -0.34791347 0
0.67278981 -0.35759318 0.28448287 -0.94283915 1.4045695e-08 -0.33324835 0
1.3255645 -0.35970077 0.2805402 0.93868142 4.4484554e-09 -0.3447856 0
0.67574602 -0.28220609 0.27668759 -0.93471175 -3.6813251e-08 -0.35540661 0
1.3248271 -0.27910018 0.27817303 0.93636596 -3.3269281e-08 -0.3510254 0
0.67464066 -0.2003015 0.27963829 -0.93766522 -7.377929e-08 -0.34753975 0
1.325685 -0.20296741 0.28048381 0.93892938 -8.7246015e-08 -0.34410995 0
0.67433017 -0.11669955 0.28089312 -0.93907475 -3.2845691e-08 -0.34371284 0
1.3255187 -0.12083819 0.28024581 0.93838012 4.3694772e-08 -0.34560478 0
0.67552042 -0.041134428 0.27735013 -0.93507576 2.0434477e-08 -0.35444805 0
1.3265724 -0.039631575 0.28307974 0.94154471 4.5945779e-08 -0.3368881 0
0.67503959 0.041632708 0.27917281 -0.9375388 1.4841714e-07 -0.34788066 0
1.3258244 0.038370121 0.28083941 0.93946922 2.0191749e-08 -0.34263334 0
0.67395175 0.12077773 0.28164285 -0.93976498 3.1863646e-08 -0.34182128 0
1.3246955 0.12028933 0.27794495 0.93578047 1.0489679e-08 -0.35258335 0
0.67420793 0.20018953 0.28110552 -0.93908238 -7.3757818e-08 -0.34369212 0
1.3257728 0.19881216 0.28085434 0.93921608 1.4855432e-08 -0.34332672 0
0.67413926 0.28278172 0.28130013 -0.93983716 -2.4098423e-10 -0.34162277 0
1.3248676 0.27767318 0.27838746 0.93664378 6.7901695e-08 -0.35028335 0
0.6739462 0.36077875 0.28155822 -0.93984282 9.1038387e-08 -0.3416073 0
1.325491 0.36081916 0.27989742 0.93796265 5.5561699e-08 -0.34673613 0
0.67458206 0.43749452 0.27986181 -0.93816191 5.6281628e-08 -0.34619689 0
1.3247091 0.43916693 0.27814415 0.93576282 -1.5200103e-09 -0.35262999 0
0.67599487 0.51787496 0.27618787 -0.93401337 -3.1677576e-08 -0.35723796 0
1.325716 0.52031165 0.28090474 0.939156 4.0302002e-09 -0.34349084 0
0.67484659 0.6007489 0.27928293 -0.93762016 -5.5408158e-09 -0.34766129 0
1.3257647 0.59918934 0.28089753 0.93952632 -6.6238435e-08 -0.34247687 0
0.68170327 0.67920488 0.28078738 -0.83251035 0.46207121 -0.30564162 0
0.75990015 0.6999988 0.27761802 5.865121e-07 1 2.5643945e-07 0
0.84015882 0.69999892 0.28143063 -5.4591584e-07 1 -3.5029129e-07 0
0.92021799 0.69999886 0.27789411 -2.2830338e-07 1 -1.1525865e-07 0
0.99629396 0.69999903 0.28249392 -1.1143136e-06 1 6.8444109e-08 0
1.0844502 0.69999915 0.28220603 4.9425716e-07 1 -4.984006e-07 0
1.1590084 0.69999903 0.28010479 7.8750747e-07 1 -9.865131e-07 0
1.2372359 0.69999903 0.28148717 -6.4425603e-07 1 1.6624371e-07 0
1.3157159 0.68274933 0.27881095 0.79725021 0.52184874 -0.30342385 0
0.67240095 -0.6845057 0.35985383 -0.70357853 -0.70529801 -0.08678668 0
0.76114458 -0.69999933 0.36024672 -1.7529603e-08 -1 3.3911414e-07 0
0.84177786 -0.69999868 0.3583886 -9.3941918e-07 -1 -4.3921389e-07 0
0.92064226 -0.69999892 0.36036336 1.5960362e-07 -1 2.5493847e-07 0
1.0007545 -0.69999909 0.36034614 2.8817149e-07 -1 1.4889166e-07 0
1.0819112 -0.69999886 0.35961303 0 -1 0 0
1.1602719 -0.69999886 0.35851356 4.4107054e-07 -1 -1.4168272e-07 0
1.2377826 -0.6999988 0.35832945 -8.6195485e-08 -1 1.9991255e-07 0
1.3287551 -0.68435377 0.36251035 0.68206406 -0.72705066 -0.078651041 0
0.65567398 -0.59385514 0.35683531 -0.9922123 8.8350134e-08 -0.12455841 0
1.3447766 -0.60215372 0.36074096 0.99348307 9.2164299e-08 -0.11398013 0
0.65549433 -0.51875168 0.35878703 -0.99301946 5.8538209e-08 -0.11795115 0
1.3445905 -0.52189189 0.35983658 0.99320275 -7.5902058e-09 -0.11639736 0
0.65514213 -0.44137737 0.36165902 -0.99383211 -1.4778292e-09 -0.1108957 0
1.3446659 -0.44252431 0.36013588 0.99328858 -9.2789598e-09 -0.11566295 0
0.65506351 -0.3591826 0.36240453 -0.99412769 -1.0430369e-08 -0.10821342 0
1.3446949 -0.35971811 0.36051461 0.99346066 6.7168244e-08 -0.11417531 0
0.6555928 -0.28027123 0.35834441 -0.99262083 -8.8595016e-09 -0.1212593 0
1.3449341 -0.27993509 0.36291444 0.9941988 5.8658994e-08 -0.10755791 0
0.65510333 -0.2022512 0.36184877 -0.99382901 4.9734894e-08 -0.11092326 0
1.3441104 -0.19881095 0.35562733 0.99179536 -5.5835705e-09 -0.12783556 0
0.65534312 -0.12267355 0.35995802 -0.993231 -6.5027994e-10 -0.11615577 0
1.3447623 -0.12055413 0.36119246 0.99378312 7.2195093e-08 -0.11133395 0
0.6556046 -0.039149668 0.35752574 -0.99240363 -1.773261e-08 -0.1230244 0
1.3446609 -0.041682087 0.36035392 0.99338198 -2.2288367e-08 -0.11485714 0
0.65530968 0.036831439 0.35990208 -0.9932158 5.9111887e-08 -0.11628532 0
1.3444257 0.043700617 0.35840112 0.99276918 2.4675893e-08 -0.12003897 0
0.65565968 0.11777721 0.3577725 -0.99249846 9.8109197e-08 -0.12225723 0
1.3445653 0.1189218 0.35958296 0.99310887 -8.6504635e-09 -0.11719598 0
0.65535557 0.19687301 0.35968068 -0.99308586 7.1817027e-08 -0.11739006 0
1.3448168 0.20174167 0.36204973 0.99393916 6.2064114e-09 -0.10993167 0
0.6552223 0.27988735 0.36148 -0.99370956 -2.8426754e-09 -0.11198808 0
1.344641 0.27665907 0.3600027 0.99341553 -1.9402095e-09 -0.11456673 0
0.65527576 0.36042365 0.36060265 -0.99344033 -3.2988229e-08 -0.11435141 0
1.3443686 0.36072928 0.35807469 0.99258149 -3.6845321e-08 -0.12158079 0
0.65556252 0.44021943 0.35874671 -0.99299979 5.2230908e-09 -0.11811662 0
1.3445127 0.43937442 0.35891843 0.99291736 2.2235708e-08 -0.1188075 0
0.65544462 0.51895887 0.35926107 -0.99306786 -5.8285742e-08 -0.11754286 0
1.3444893 0.51967847 0.35880184 0.99292016 1.1085502e-08 -0.11878359 0
0.65545422 0.59898311 0.35944951 -0.99307191 -1.0227264e-07 -0.11750798 0
1.3447441 0.60137457 0.36056557 0.99345583 6.034917e-09 -0.11421677 0
0.67369115 0.68685204 0.36149779 -0.61796087 0.78295016 -0.071508363 0
0.76159471 0.6999988 0.36046785 9.0623679e-08 1 2.6018358e-07 0
0.84144682 0.69999909 0.35953119 -4.1936408e-07 1 -1.6125992e-07 0
0.91827935 0.69999892 0.35851789 0 1 0 0
1.0000135 0.69999897 0.36119747 -3.7873525e-07 1 2.5722127e-07 0
1.078079 0.69999892 0.35757062 -5.3831434e-07 1 4.0385583e-08 0
1.1585904 0.6999988 0.36206567 7.7654857e-07 1 -3.1296457e-07 0
1.2410983 0.69999909 0.35832539 -1.2031651e-07 1 3.4195307e-07 0
1.328457 0.68583786 0.36085972 0.67058641 0.73743713 -0.080624677 0
0.67271966 -0.68507946 0.43861368 -0.62283319 -0.77935863 0.068403192 0
0.75490946 -0.69999909 0.4417589 2.8615145e-07 -1 -2.2443758e-07 0
0.84039187 -0.69999897 0.43980727 -1.2757317e-06 -1 -1.671185e-07 0
0.92012674 -0.69999915 0.43839034 6.3292464e-07 -1 -2.5786858e-07 0
1.0023212 -0.69999903 0.44069701 -3.3645716e-07 -1 -2.7222444e-07 0
1.0788087 -0.69999909 0.44184062 1.9062144e-07 -1 -1.5643906e-07 0
1.1624928 -0.69999921 0.44167036 4.5199587e-07 -1 1.8157979e-07 0
1.2408652 -0.69999874 0.4373115 -1.8065205e-07 -1 -5.462466e-08 0
1.3270357 -0.68721241 0.43687704 0.64940852 -0.75744283 0.067445979 0
0.6553908 -0.59756875 0.44038594 -0.9932608 9.218337e-08 0.11590093 0
1.3446245 -0.60007733 0.44047323 0.99316055 -1.7343939e-09 0.11675673 0
0.65546858 -0.52258068 0.44111234 -0.99279946 2.3423148e-08 0.11978835 0
1.3450831 -0.51657885 0.43641081 0.99453914 2.899111e-08 0.10436412 0
0.65502167 -0.43856731 0.4360427 -0.99448889 -1.2019984e-09 0.10484174 0
1.3442388 -0.43781471 0.44299695 0.99217463 7.212401e-08 0.1248579 0
0.65573007 -0.35907674 0.44297954 -0.99224418 -2.1280416e-08 0.12430435 0
1.3445112 -0.35974944 0.44099417 0.9929179 3.8022513e-08 0.11880208 0
0.65573227 -0.28115952 0.44299296 -0.99215329 -5.0473961e-08 0.12502758 0
1.3449655 -0.28003016 0.43732098 0.99415725 -3.8963264e-09 0.10794163 0
0.655595 -0.19678585 0.44172829 -0.9926762 -1.312877e-08 0.12080548 0
1.3451332 -0.20063365 0.43595132 0.99452895 -3.0070701e-08 0.10446122 0
0.65508771 -0.12152751 0.43798235 -0.99381524 -4.7156064e-08 0.11104643 0
1.3443354 -0.11481515 0.44294026 0.99227297 -8.8638558e-08 0.12407403 0
0.65552074 -0.039126776 0.44177368 -0.99275947 -1.5337963e-07 0.12011918 0
1.3448868 -0.037422828 0.43772218 0.99408048 -5.848241e-08 0.10864643 0
0.65519261 0.042421248 0.43877134 -0.99363041 6.8331438e-08 0.11268777 0
1.3447537 0.04183463 0.43933535 0.99352837 1.6109031e-08 0.11358406 0
0.65531456 0.12159905 0.43972737 -0.99339259 9.992042e-08 0.11476573 0
1.3446581 0.12010886 0.4398163 0.9933821 7.6549647e-08 0.11485614 0
0.65540487 0.20300657 0.44054973 -0.99313539 1.4532991e-08 0.11697008 0
1.3449219 0.19852176 0.43792468 0.99401611 4.137747e-09 0.10923377 0
0.6557045 0.28077313 0.44186458 -0.99268848 -3.241648e-08 0.12070476 0
1.3444782 0.28031871 0.44233271 0.99255764 -7.9836084e-08 0.12177549 0
0.65549129 0.35966447 0.44054642 -0.9930675 1.4755072e-08 0.11754494 0
1.3443915 0.36151004 0.44123498 0.99286848 -8.6055955e-08 0.11921492 0
0.65527147 0.44302014 0.43917418 -0.99360448 6.3184807e-08 0.11291657 0
1.3446214 0.43738237 0.44054624 0.99313086 3.1311129e-10 0.11700915 0
0.65560323 0.52092052 0.44231424 -0.99242324 3.0357342e-08 0.12286588 0
1.3443094 0.51891512 0.44326416 0.99214005 -1.5769279e-08 0.12513223 0
0.65517294 0.59723979 0.43861154 -0.99373251 -5.5509798e-08 0.11178392 0
1.3444813 0.59821486 0.44124898 0.99282742 -7.7115146e-08 0.11955579 0
0.67261159 0.68709081 0.44104135 -0.62377948 0.77771705 0.077815548 0
0.75771791 0.69999897 0.43798089 2.2549767e-07 1 -4.0060567e-07 0
0.83705187 0.69999903 0.43940443 -4.828542e-07 1 1.1710853e-07 0
0.92079085 0.6999988 0.43759567 0 1 0 0
1.0007659 0.69999927 0.44034815 -4.0102131e-07 1 -3.3279096e-07 0
1.0816817 0.69999862 0.43792781 -2.1957406e-07 1 -3.0387989e-07 0
1.1571019 0.69999886 0.43607491 8.9185988e-07 1 5.5963153e-07 0
1.2408401 0.69999903 0.43970725 -1.7139021e-07 1 -3.2107133e-07 0
1.3276538 0.68658817 0.43965024 0.65544218 0.75141668 0.075950868 0
0.68409538 -0.68229491 0.52040195 -0.78683853 -0.539069 0.30048248 0
0.76064104 -0.69999897 0.52170372 5.9548603e-07 -1 -2.9533791e-07 0
0.84028596 -0.69999909 0.52118099 -8.2334134e-07 -1 9.4364862e-07 0
0.92147386 -0.69999886 0.52185518 -6.143573e-07 -1 7.5164604e-07 0
1.002674 -0.69999886 0.51725245 8.6008708e-07 -1 -2.6842798e-07 0
1.0812428 -0.69999897 0.52184385 6.671188e-07 -1 1.4915929e-07 0
1.1585146 -0.6999988 0.52591282 5.1918181e-07 -1 4.4047377e-07 0
1.2392633 -0.6999988 0.52207285 -7.0650219e-07 -1 -4.033479e-08 0
1.3168607 -0.68160677 0.51715487 0.77408576 -0.56873882 0.27807826 0
0.67485452 -0.59780616 0.52101469 -0.93686038 8.2645855e-08 0.34970361 0
1.325938 -0.60254288 0.51876962 0.93965483 3.3353766e-09 0.34212393 0
0.67549771 -0.5187043 0.52254778 -0.93583077 3.1447247e-08 0.35244963 0
1.3263296 -0.52390403 0.51777673 0.94076973 3.5738914e-08 0.33904621 0
0.67454624 -0.43861952 0.51989883 -0.93819225 -1.1625998e-07 0.34611458 0
1.3240891 -0.43930086 0.52360284 0.93412334 7.7491059e-08 0.35695037 0
0.67523658 -0.35995692 0.52163428 -0.93628609 -7.1112787e-08 0.35123837 0
1.3253443 -0.36103347 0.52048361 0.9375295 -1.8125807e-08 0.3479057 0
0.67496252 -0.27712068 0.52100068 -0.93729204 -5.6588917e-10 0.34854493 0
1.3252403 -0.28016198 0.52063483 0.93748629 -6.4537311e-08 0.3480221 0
0.67405254 -0.20074211 0.51852047 -0.93978262 -9.1431751e-08 0.34177276 0
1.3257321 -0.20210972 0.51891685 0.93933624 -6.1568208e-08 0.34299791 0
0.67401385 -0.11607653 0.51845837 -0.9395718 -8.2142435e-08 0.34235179 0
1.3254297 -0.11994082 0.52013129 0.93803954 -1.6410501e-08 0.34652808 0
0.67500204 -0.040490851 0.52089632 -0.93747634 -5.1044939e-08 0.34804904 0
1.3251323 -0.035852738 0.52060747 0.93752706 -2.1140062e-08 0.34791228 0
0.67512268 0.038705751 0.52141291 -0.93634194 4.205425e-08 0.35108924 0
1.3249347 0.037811074 0.52147424 0.93673271 -5.9524933e-08 0.35004535 0
0.67542315 0.11776362 0.5221802 -0.93605906 3.1630514e-09 0.35184294 0
1.3259534 0.11842018 0.51837546 0.93999058 -5.2582678e-08 0.34120047 0
0.67450756 0.19888699 0.52001524 -0.93835527 -1.035677e-07 0.34567243 0
1.3267282 0.19821091 0.51641071 0.94152141 -7.9464627e-08 0.33695331 0
0.67433149 0.27916437 0.51920813 -0.93916941 -1.4810807e-08 0.34345421 0
1.3254931 0.27979425 0.51970774 0.93832535 -6.164219e-08 0.34575343 0
0.67550051 0.36164036 0.52221149 -0.93593323 1.4026492e-07 0.35217753 0
1.324477 0.35659599 0.52281296 0.93496442 3.5287968e-08 0.35474148 0
0.67382765 0.44273138 0.51801145 -0.94077885 5.3648133e-08 0.33902094 0
1.3245125 0.44061026 0.52254432 0.9355939 7.5074297e-08 0.35307795 0
0.67421812 0.51848304 0.51932967 -0.93866324 -3.6634436e-08 0.34483525 0
1.324762 0.51859897 0.52187681 0.93637526 -1.1605854e-08 0.35100052 0
0.67497742 0.6014899 0.52128518 -0.93674529 -8.2221057e-08 0.35001191 0
1.3255469 0.59667188 0.51959407 0.93889821 -2.563119e-08 0.34419498 0
0.68383676 0.68311971 0.51877475 -0.74034768 0.61258411 0.27681416 0
0.76000124 0.69999903 0.52001846 6.9012242e-07 1 -1.1825153e-08 0
0.83977008 0.69999897 0.51847875 -5.2503242e-07 1 3.6716139e-07 0
0.91983718 0.6999988 0.51822323 -1.0975897e-06 1 -1.563329e-07 0
0.99985623 0.69999886 0.52203977 5.4323795e-08 1 1.9921751e-07 0
1.079466 0.69999886 0.52106267 7.4571113e-07 1 6.5037125e-07 0
1.160092 0.69999874 0.51998723 9.3367686e-07 1 4.2707208e-07 0
1.2397031 0.69999886 0.52199864 -6.3905537e-07 1 -1.8533368e-07 0
1.3151931 0.68339449 0.52062178 0.74868995 0.59917957 0.28363225 0
0.70643514 -0.67561734 0.58342236 -0.83549929 -0.16453701 0.52427906 0
0.75262225 -0.69031668 0.60449213 -0.30290854 -0.91893244 0.25260559 0
0.83707213 -0.6999988 0.6005711 1.2943728e-07 -1 -4.056532e-07 0
0.91552573 -0.6999988 0.59720051 -1.5878909e-07 -1 7.4061131e-07 0
1.001251 -0.69999886 0.59789753 2.8268357e-07 -1 1.513219e-06 0
1.0798321 -0.69999886 0.60074615 1.685041e-07 -1 5.3385781e-07 0
1.1589723 -0.69999892 0.60211492 -2.4673733e-07 -1 -3.2275548e-07 0
1.2478414 -0.68933189 0.60718662 0.36101031 -0.88142252 0.30457482 0
1.2944037 -0.67415673 0.58097762 0.83552343 -0.19629626 0.5131942 0
0.70559484 -0.60092825 0.58436298 -0.84740269 8.1897163e-08 0.53095084 0
0.73149252 -0.60303557 0.62050384 -0.77317888 0 0.634188 0
1.2648484 -0.59749246 0.62498987 0.76167476 1.2302969e-07 0.64795947 0
1.2953187 -0.60254443 0.58300209 0.84943163 1.1363529e-07 0.52769876 0
0.70448607 -0.52056128 0.58266848 -0.85102266 -4.3847045e-08 0.52512896 0
0.73372871 -0.5221613 0.62334448 -0.76710051 -1.3683435e-08 0.641527 0
1.2655513 -0.51434088 0.62414354 0.76427686 -4.6422972e-08 0.64488822 0
1.2961009 -0.51851416 0.58168221 0.85217541 -5.9612728e-09 0.52325624 0
0.70387995 -0.43793783 0.58159459 -0.85240948 -1.514961e-07 0.52287477 0
0.73569155 -0.44199759 0.62558472 -0.7616533 -2.4719302e-08 0.64798474 0
1.2672962 -0.44409305 0.62212056 0.76930261 -1.2042808e-07 0.63888454 0
1.2950277 -0.43844652 0.58339816 0.85016084 -8.408189e-08 0.52652311 0
0.70305353 -0.36243847 0.58035117 -0.85460281 -9.9426899e-08 0.5192821 0
0.73426777 -0.35979888 0.62392139 -0.76435101 -7.3169424e-08 0.64480031 0
1.2664118 -0.361177 0.62315422 0.76675135 -1.0938848e-07 0.64194423 0
1.2949529 -0.3564766 0.58349532 0.84953433 -1.7091525e-08 0.52753329 0
0.70596462 -0.28123358 0.5849303 -0.84662622 -6.1703482e-09 0.532188 0
0.73526359 -0.28106982 0.62515402 -0.76207608 -1.1852844e-07 0.64748752 0
1.2652234 -0.28331637 0.62449265 0.76335591 -3.8756138e-08 0.64597815 0
1.2944742 -0.28194031 0.58421165 0.84792626 3.8335713e-08 0.53011405 0
0.70448542 -0.19848996 0.58252478 -0.85078961 1.1249923e-09 0.5255065 0
0.73370343 -0.20004173 0.62318254 -0.76681566 -3.8003961e-08 0.6418674 0
1.2656789 -0.20278251 0.62397933 0.76365179 1.1700349e-07 0.64562827 0
1.2936736 -0.19865994 0.58561045 0.84485555 -7.4798292e-09 0.53499448 0
0.7046935 -0.11921372 0.58293974 -0.85082442 -7.2712844e-08 0.52545011 0
0.73379266 -0.12145378 0.62341398 -0.76664144 -1.6733676e-07 0.64207548 0
1.2662418 -0.1182166 0.62332952 0.76712275 -1.5834549e-07 0.64150029 0
1.2952732 -0.11910583 0.5829888 0.85031533 -1.4560686e-07 0.52627343 0
0.70450455 -0.037551884 0.58253306 -0.85126901 -8.1079364e-08 0.52472961 0
0.73395663 -0.042144559 0.62354463 -0.76532185 -8.0850626e-08 0.64364779 0
1.2661247 -0.037542801 0.62349445 0.76536596 -9.239757e-08 0.64359528 0
1.295316 -0.040684562 0.58286244 0.85023147 -1.8791351e-07 0.52640891 0
0.70464921 0.036181089 0.58289105 -0.85051972 8.2387439e-09 0.52594316 0
0.73348951 0.043899141 0.62299412 -0.76704651 -2.0631811e-07 0.64159155 0
1.2643882 0.041077323 0.62554473 0.76125103 -1.1053599e-07 0.64845717 0
1.295257 0.042508695 0.58305371 0.85016286 2.4797231e-07 0.52651983 0
0.70574963 0.12167509 0.58465433 -0.84699893 2.7632085e-08 0.53159457 0
0.73425108 0.11894543 0.62395042 -0.76471853 -5.7200417e-08 0.6443646 0
1.2668033 0.12271598 0.62268472 0.76745105 -5.3167881e-08 0.64110756 0
1.2928683 0.11940221 0.58677208 0.84320706 5.0764388e-08 0.53758889 0
0.70545512 0.19842346 0.58409083 -0.84834301 -2.946395e-08 0.52944702 0
0.73362315 0.20047244 0.62319767 -0.76517516 1.1843412e-07 0.64382219 0
1.265027 0.20064947 0.62478232 0.76225024 4.5166754e-08 0.64728254 0
1.2968026 0.19959265 0.5804435 0.85506999 -2.5594187e-07 0.51851261 0
0.70430547 0.27818576 0.58239192 -0.85162234 -2.2103388e-08 0.52415591 0
0.73364669 0.27782157 0.62321037 -0.76712281 -1.9525199e-08 0.64150035 0
1.2672735 0.27689725 0.6221168 0.76921964 3.2354095e-08 0.63898456 0
1.2927582 0.27753896 0.58710951 0.84235269 -1.6909834e-07 0.53892666 0
0.70370972 0.36284557 0.58140862 -0.85358679 5.9726757e-09 0.52095073 0
0.73413342 0.36236939 0.62379992 -0.76488703 -3.101669e-08 0.6441645 0
1.2661723 0.35852093 0.62347722 0.76588559 -6.1439103e-08 0.64297682 0
1.2942611 0.35756278 0.58454633 0.84767324 2.5693061e-09 0.53051877 0
0.70383042 0.43923548 0.58159643 -0.8528859 5.7119884e-08 0.52209729 0
0.73492378 0.44121251 0.62472767 -0.76363182 9.6120388e-08 0.64565188 0
1.26631 0.44038033 0.62322044 0.76560104 -4.1147921e-08 0.64331567 0
1.2949492 0.44100639 0.58353186 0.84872144 -8.5367454e-08 0.52884024 0
0.70728886 0.52202505 0.58713061 -0.84185362 8.8068672e-09 0.53970593 0
0.73338461 0.519921 0.62284213 -0.76809049 8.202953e-08 0.64034134 0
1.2661568 0.51981711 0.62341583 0.76604027 7.3864426e-09 0.64279264 0
1.2944353 0.51883847 0.58425283 0.84773463 -3.6578964e-08 0.5304206 0
0.70522302 0.59879631 0.58375859 -0.8482312 -7.9230922e-08 0.52962601 0
0.73254573 0.59718472 0.62186474 -0.76969719 -3.7261234e-08 0.63840914 0
1.2659057 0.60251951 0.62367201 0.76545352 1.2379812e-08 0.64349115 0
1.2956604 0.60035306 0.58243728 0.85181832 3.0928362e-08 0.52383739 0
0.7047531 0.67297548 0.58077812 -0.83428133 0.20244689 0.51282537 0
0.75310153 0.69084394 0.60597569 -0.33983207 0.89792925 0.27970913 0
0.84188545 0.69999915 0.59826332 2.0625848e-07 1 -2.3555131e-07 0
0.91776562 0.6999988 0.60025054 -1.0945275e-07 1 7.1058128e-07 0
1.0029757 0.69999874 0.60007751 1.4736959e-07 1 1.183506e-06 0
1.0783174 0.69999921 0.60181314 1.1282766e-07 1 7.9246104e-07 0
1.1624095 0.69999897 0.60087001 -2.6444937e-07 1 -4.0226203e-07 0
1.2472068 0.69068313 0.60655093 0.31086898 0.91438597 0.25934279 0
1.2942723 0.67661977 0.5814622 0.82374758 0.24539292 0.51109898 0
0.77665967 -0.67647755 0.6623193 -0.62779182 -0.24629958 0.73838603 0
0.83677673 -0.6880334 0.68641669 -0.29660237 -0.79737955 0.52555966 0
0.92174286 -0.69999892 0.6806469 2.8489004e-07 -1 -3.4698584e-07 0
0.99985254 -0.69999909 0.67790473 2.3678464e-08 -1 -6.0593237e-07 0
1.079197 -0.69999909 0.68155777 2.0102122e-07 -1 -3.7171495e-07 0
1.1586257 -0.68746758 0.68709207 0.27590281 -0.81238317 0.51372284 0
1.225051 -0.67770344 0.66197479 0.63624924 -0.23340698 0.7353285 0
0.77651948 -0.59686756 0.66570568 -0.64383149 -1.1866734e-08 0.76516724 0
0.83300751 -0.60093135 0.70429909 -0.48001975 6.8402663e-08 0.87725765 0
1.1726749 -0.59949571 0.70115244 0.49730122 6.6409392e-08 0.86757791 0
1.2265115 -0.60276604 0.66326827 0.65252805 0 0.75776464 0
0.7740342 -0.52221382 0.66359568 -0.65086228 3.1599392e-08 0.75919586 0
0.83083594 -0.51962155 0.70309651 -0.48724556 9.3213387e-08 0.87326503 0
1.1670806 -0.51911896 0.70426977 0.48110902 7.0417744e-10 0.87666082 0
1.2285341 -0.51707882 0.66140282 0.65727144 -5.1976709e-08 0.753654 0
0.77365166 -0.43989569 0.66329217 -0.65253532 -1.7990022e-08 0.75775832 0
0.83035326 -0.43982497 0.70277488 -0.48738337 4.2727571e-08 0.87318814 0
1.1675498 -0.43844905 0.70393109 0.48231307 -2.0257561e-08 0.87599891 0
1.2268676 -0.43864259 0.66271192 0.65317529 -1.0536211e-07 0.75720668 0
0.7722491 -0.35989675 0.66211879 -0.65556681 -6.3256991e-08 0.75513726 0
0.83334392 -0.35730276 0.70449567 -0.47985464 -1.1643397e-07 0.87734795 0
1.1688497 -0.36132875 0.70336437 0.48566231 -4.5301803e-08 0.87414646 0
1.2292601 -0.35882568 0.66076797 0.66033036 -6.5998961e-08 0.75097519 0
0.77489078 -0.28017041 0.66421151 -0.64864498 -9.7055114e-08 0.76109111 0
0.8342585 -0.28009072 0.70493108 -0.47769809 -2.5306875e-07 0.87852407 0
1.1681746 -0.27853268 0.70362723 0.48387882 -1.2072954e-07 0.87513506 0
1.2261349 -0.27748743 0.66344362 0.65148062 -1.56007e-07 0.75866526 0
0.77229506 -0.19992191 0.66209871 -0.65576047 -1.2699832e-07 0.75496906 0
0.83192337 -0.20091781 0.70375866 -0.48441932 -2.2750737e-07 0.87483591 0
1.166924 -0.20100696 0.70430785 0.48079208 -1.5138606e-07 0.87683469 0
1.2268648 -0.20148633 0.66285193 0.65397877 -1.4612569e-07 0.75651288 0
0.77410501 -0.1205207 0.66355455 -0.65125936 -6.3822739e-08 0.75885522 0
0.83020163 -0.12154412 0.70271236 -0.48913428 -8.5079208e-08 0.87220848 0
1.1700529 -0.12021244 0.70260286 0.48969424 -5.0544703e-08 0.87189424 0
1.2277739 -0.12066852 0.66199857 0.65595835 -3.5253287e-08 0.7547971 0
0.77548015 -0.044401478 0.66479427 -0.64684165 -1.1622856e-07 0.76262432 0
0.8301996 -0.040512331 0.70270002 -0.4877694 -1.1340217e-07 0.87297255 0
1.1711388 -0.039763343 0.70201832 0.49264032 -7.6926014e-08 0.87023306 0
1.2280686 -0.041343577 0.66176647 0.65695131 -4.0493408e-08 0.75393313 0
0.77309102 0.038722944 0.66276455 -0.65345895 4.2434163e-08 0.756962 0
0.83195847 0.041453023 0.70368326 -0.48357314 2.1385812e-07 0.87530404 0
1.1665244 0.039200623 0.70453709 0.4792046 1.2002698e-07 0.87770325 0
1.2260627 0.038781293 0.66347116 0.65188235 1.646259e-08 0.75832009 0
0.77378899 0.11921091 0.6633597 -0.65222514 -2.7911606e-09 0.75802529 0
0.83226073 0.12047471 0.70388073 -0.48273239 8.5500226e-08 0.87576789 0
1.1672719 0.12027302 0.70414442 0.48204267 4.4969418e-08 0.87614775 0
1.2284701 0.1210554 0.66135389 0.65809053 4.2478909e-08 0.75293881 0
0.77373701 0.19865909 0.66324639 -0.65143996 -5.208711e-08 0.75870019 0
0.82894909 0.20209734 0.70201612 -0.49222168 -2.3944739e-07 0.87046987 0
1.1694062 0.20328663 0.7029376 0.48766276 -1.7240612e-07 0.87303197 0
1.2256628 0.20053205 0.6638239 0.65088505 -1.700531e-07 0.75917631 0
0.7747032 0.27758843 0.6641776 -0.64921433 -1.6055388e-08 0.76060551 0
0.83260185 0.27931216 0.70412862 -0.48218426 -2.1937632e-07 0.87606984 0
1.1662384 0.28089806 0.70471197 0.47744912 -1.1973974e-07 0.87865937 0
1.2253773 0.28036168 0.66403872 0.64869708 -1.6588551e-07 0.76104683 0
0.77374405 0.35901609 0.66330636 -0.65178049 4.4658162e-08 0.75840771 0
0.83175081 0.36355472 0.70350063 -0.48454374 1.8663648e-08 0.87476701 0
1.1707475 0.35836899 0.70217282 0.49184138 -1.6215411e-08 0.87068486 0
1.2274619 0.36039159 0.66230547 0.65487057 -6.5331345e-09 0.75574112 0
0.77011061 0.43769211 0.66023183 -0.66170746 -2.6251238e-08 0.74976212 0
0.83372152 0.43874794 0.70474786 -0.47929543 9.4661807e-08 0.87765366 0
1.1708378 0.44019672 0.7021507 0.4906278 -1.7550585e-08 0.87136918 0
1.2275795 0.44120032 0.66227758 0.65572399 8.727141e-08 0.75500077 0
0.77192253 0.51707524 0.66170645 -0.65673369 -5.1926669e-08 0.75412261 0
0.83084553 0.51806825 0.70313692 -0.48771802 -6.4852759e-09 0.87300122 0
1.1704683 0.51973873 0.7023893 0.49083751 -1.5641453e-08 0.87125117 0
1.2256387 0.52143699 0.66384518 0.64931709 9.0209923e-08 0.76051778 0
0.77599204 0.59646094 0.66521251 -0.64533889 2.1156414e-08 0.76389641 0
0.83219439 0.60261148 0.70391548 -0.48309252 -8.9312046e-08 0.87556928 0
1.165431 0.60023057 0.705118 0.47591865 -9.6939971e-08 0.8794893 0
1.2233245 0.59934765 0.66584331 0.64407015 1.5612542e-08 0.76496643 0
0.77794105 0.67689717 0.66311264 -0.62121737 0.26356807 0.7379843 0
0.83931965 0.68497652 0.69022226 -0.32151157 0.7485953 0.57985812 0
0.92492604 0.6999988 0.6789161 -9.2164974e-08 1 -6.0477782e-07 0
0.99942249 0.69999892 0.6772629 6.6515192e-08 1 -6.1531068e-07 0
1.0796281 0.69999909 0.67961091 -9.8899328e-08 1 -5.2852459e-07 0
1.1655287 0.68512744 0.68621856 0.3451046 0.71646398 0.60628557 0
1.2228246 0.67734653 0.66262645 0.60805535 0.34153178 0.71667618 0
0.87120724 -0.67523664 0.72271591 -0.36811817 -0.083057724 0.92606175 0
0.92030263 -0.67630482 0.73545563 -0.22694343 -0.27961776 0.93290436 0
0.99828202 -0.68104404 0.74221432 -0.0080243321 -0.51145846 0.85927057 0
1.0793136 -0.67579442 0.73596448 0.2263753 -0.22998333 0.94649976 0
1.1275935 -0.67204511 0.72334361 0.36791119 -0.071259759 0.92712641 0
0.87113696 -0.5971334 0.72292644 -0.3728745 6.8093236e-08 0.92788184 0
0.91933608 -0.60111988 0.73741943 -0.23273754 4.6607955e-08 0.9725396 0
0.99691689 -0.59960097 0.74686092 -0.0095267231 3.9868279e-08 0.99995458 0
1.0803512 -0.60126138 0.73746002 0.23196597 1.3116947e-07 0.9727239 0
1.1280054 -0.59829432 0.72327673 0.37018088 1.5576335e-08 0.92895967 0
0.87226987 -0.51813549 0.72340226 -0.36766097 4.0730395e-08 0.92995989 0
0.92324096 -0.52150685 0.73829436 -0.22154351 8.2843179e-08 0.97515053 0
1.0005392 -0.51921648 0.74705201 0.0016058955 -3.7448061e-08 0.99999875 0
1.0797751 -0.52395892 0.73753071 0.22882564 7.3446344e-08 0.97346747 0
1.1286812 -0.52667332 0.72301012 0.36998993 0 0.92903572 0
0.87171763 -0.44050601 0.7231642 -0.36999497 1.9864532e-07 0.9290337 0
0.91695666 -0.43785962 0.73687011 -0.2391296 1.8262583e-08 0.97098762 0
0.9991352 -0.43772626 0.74701315 -0.0022197852 -4.0883698e-08 0.9999975 0
1.079851 -0.43898454 0.73761654 0.22973441 -5.2910931e-08 0.97325337 0
1.1287096 -0.43948415 0.72300184 0.36882409 -8.6248253e-09 0.92949921 0
0.87090355 -0.35333827 0.72285873 -0.36947045 4.2825448e-08 0.92924249 0
0.91854781 -0.35994944 0.73725355 -0.23490334 -1.064372e-07 0.97201872 0
0.99853992 -0.35942674 0.74679178 -0.004146629 -7.173432e-08 0.99999142 0
1.0824066 -0.36202711 0.73699051 0.23717333 -1.4309414e-07 0.97146732 0
1.1271479 -0.35386825 0.72362703 0.36476344 -9.9703094e-08 0.93110019 0
0.87247276 -0.27719617 0.72347486 -0.36558327 -1.6548596e-07 0.93077868 0
0.91769409 -0.27772069 0.73694581 -0.23783876 -1.7717632e-07 0.9713046 0
1.0006118 -0.27924609 0.74694633 0.0025380943 -9.7007216e-08 0.99999672 0
1.0805442 -0.28089297 0.73741484 0.23198821 -2.1724826e-07 0.9727186 0
1.1280377 -0.27789763 0.72326624 0.36954057 -1.5362974e-07 0.9292146 0
0.87160569 -0.2037404 0.72313797 -0.37129736 -2.4742764e-07 0.92851394 0
0.91802412 -0.19952224 0.73708695 -0.23671435 -1.7958004e-07 0.97157925 0
1.0005586 -0.19887206 0.74700189 0.0019063384 -3.5674212e-08 0.99999821 0
1.0817038 -0.19912489 0.73723859 0.23587814 -1.8003746e-07 0.97178262 0
1.1269803 -0.20502722 0.72368884 0.36457029 -1.2151102e-07 0.93117583 0
0.87166965 -0.11984251 0.72316289 -0.36977303 6.9262214e-08 0.92912209 0
0.91986305 -0.12006973 0.73764914 -0.23008682 6.736117e-09 0.9731701 0
0.9987821 -0.12006142 0.74696255 -0.0033190951 -9.8602023e-08 0.99999452 0
1.0828195 -0.11753565 0.73683304 0.23860876 -6.3555632e-08 0.97111571 0
1.1281677 -0.11601055 0.72320896 0.36818326 -4.462234e-08 0.9297533 0
0.87173504 -0.041710641 0.7231828 -0.36820897 3.2229615e-08 0.92974305 0
0.92132676 -0.039907191 0.73789537 -0.22632347 -6.7456987e-09 0.97405219 0
0.99796712 -0.039735351 0.74706542 -0.0053971894 -1.0676527e-07 0.9999854 0
1.0813642 -0.039622702 0.73722708 0.23538493 -6.0441856e-08 0.97190219 0
1.1280992 -0.037596926 0.72326142 0.36759093 1.2757958e-07 0.92998755 0
0.87267268 0.041830748 0.72354156 -0.36607602 1.2988832e-08 0.93058497 0
0.92088127 0.038229298 0.73783612 -0.22763754 -2.7332039e-08 0.97374588 0
1.0018699 0.038816806 0.74699718 0.0041989372 1.4031667e-07 0.99999118 0
1.0821582 0.036440846 0.73704445 0.2358335 1.3481309e-07 0.97179341 0
1.1281276 0.037382487 0.72323412 0.36811006 2.5813577e-07 0.92978227 0
0.87188673 0.112408 0.72324878 -0.37064409 -8.3166178e-08 0.92877495 0
0.91928017 0.11895525 0.73737186 -0.23249529 -4.3032756e-08 0.9725976 0
1.0011494 0.1202928 0.74696827 0.0024531542 9.1489326e-08 0.99999696 0
1.0807259 0.12046599 0.73740327 0.23146245 1.0436888e-07 0.97284389 0
1.1284039 0.12089552 0.72312522 0.37021053 9.8305755e-08 0.92894787 0
0.87250692 0.20089401 0.72348714 -0.3664366 -2.8712799e-07 0.93044299 0
0.91937709 0.20293584 0.73753506 -0.23233341 -1.2720778e-07 0.97263622 0
1.0023788 0.20010264 0.74701262 0.0070291506 -2.2451725e-07 0.99997532 0
1.0795022 0.20046602 0.73772794 0.2297301 -1.5377702e-07 0.97325432 0
1.1283531 0.20120762 0.72314996 0.36844027 -2.2435654e-07 0.92965138 0
0.87148798 0.28659567 0.72308683 -0.37129503 -1.5214147e-07 0.92851496 0
0.91991854 0.27834809 0.73756975 -0.2303022 -1.5762397e-07 0.97311914 0
1.0003161 0.28323105 0.74697006 0.00091310794 -3.1036822e-07 0.99999958 0
1.0808748 0.27918187 0.73738557 0.23369487 -2.5056758e-07 0.97231001 0
1.1279709 0.27924645 0.72330648 0.37050721 -1.6408671e-07 0.92882961 0
0.87229902 0.35600778 0.7234019 -0.36573553 6.0342067e-08 0.9307189 0
0.91713625 0.36423635 0.73685098 -0.23901059 -6.8053025e-09 0.97101694 0
0.99515337 0.35770169 0.7469517 -0.013999308 -3.0565534e-08 0.99990201 0
1.0807785 0.36340415 0.73744524 0.23330875 -3.6799793e-08 0.97240275 0
1.1270771 0.35014728 0.72364873 0.36621779 3.493567e-08 0.93052918 0
0.8725093 0.43871829 0.72348708 -0.36628026 1.2296096e-07 0.9305045 0
0.92242479 0.4420929 0.73813206 -0.22409749 2.9809692e-09 0.97456676 0
