# .PCD v0.7 - Point Cloud Data file format
VERSION 0.7
FIELDS x y z normal_x normal_y normal_z curvature
SIZE 4 4 4 4 4 4 4
TYPE F F F F F F F
COUNT 1 1 1 1 1 1 1
WIDTH 50
HEIGHT 1
VIEWPOINT 0 0 0 1 0 0 0
POINTS 50
DATA ascii
0.6522487 -0.079734646 0.39943242 -0.9999243 0.0 -0.012305041 0.0
0.65262 -0.08067466 0.4159435 -0.9993205 0.0 0.03685914 0.0
0.65360355 -0.08491716 0.43043965 -0.9963113 -6.786832e-07 0.08581323 0.0
0.65517825 -0.08910945 0.4449261 -0.9909104 0.0 0.13452372 0.0
0.65736693 -0.095891304 0.4594813 -0.98311085 0.0 0.1830112 0.0
0.6596571 -0.10484257 0.4713078 -0.9783099 3.3321035e-07 0.20714645 0.0
0.66257876 -0.11262386 0.48413813 -0.97292525 0.0 0.23112012 0.0
0.6651131 -0.12490319 0.49369293 -0.96042407 0.0 0.27854207 0.0
0.66794574 -0.13789506 0.50324786 -0.9533118 -3.2394206e-07 0.3019879 0.0
0.66986156 -0.15219684 0.5092792 -0.9456233 -3.215065e-07 0.32526404 0.0
0.6721829 -0.16392122 0.51602805 -0.9456254 0.0 0.32525778 0.0
0.67324257 -0.18080159 0.5189631 -0.9373583 -3.1907203e-07 0.34836677 0.0
0.6735784 -0.19593847 0.51986665 -0.9373583 -3.1907203e-07 0.34836677 0.0
0.6733838 -0.21083656 0.5193432 -0.9373583 -3.1907203e-07 0.34836677 0.0
0.6723032 -0.22679895 0.5163774 -0.9456254 -3.2207808e-07 0.32525778 0.0
0.6712856 -0.24205077 0.5134193 -0.9456254 -3.2207808e-07 0.32525778 0.0
0.6686732 -0.2549592 0.5055443 -0.9533138 3.2394274e-07 0.30198154 0.0
0.66651666 -0.2696879 0.4985323 -0.96042407 0.0 0.2785421 0.0
0.6637066 -0.28023392 0.48845208 -0.9669643 0.0 0.254912 0.0
0.66097486 -0.29107445 0.47738594 -0.972927 0.0 0.2311127 0.0
0.6585994 -0.29977074 0.46610144 -0.98311085 -3.34905e-07 0.1830112 0.0
0.6563451 -0.30767125 0.4531325 -0.987311 -3.367304e-07 0.15879856 0.0
0.65432525 -0.3129634 0.43776277 -0.9939079 -1.8769239e-08 0.11021345 0.0
0.65312403 -0.3176025 0.42458847 -0.9981146 -3.400783e-07 0.061378065 0.0
0.65233856 -0.3202616 0.40787375 -0.9999243 3.4057217e-07 0.012305041 0.0
0.6523428 -0.31997234 0.3917852 -0.9999243 2.095536e-09 -0.012305041 0.0
0.6529707 -0.31856367 0.37790504 -0.99811506 0.0 -0.061371114 0.0
0.6544487 -0.31343377 0.3611239 -0.993908 0.0 -0.11021307 0.0
0.6562582 -0.30821836 0.34740832 -0.987312 0.0 -0.15879232 0.0
0.6585483 -0.30014086 0.33417284 -0.98311085 0.0 -0.1830112 0.0
0.66125417 -0.29175994 0.321438 -0.9729268 4.0188517e-08 -0.2311135 0.0
0.66366404 -0.27992892 0.31170946 -0.9669643 4.341125e-08 -0.254912 0.0
0.6662247 -0.26853845 0.30247417 -0.96042407 0.0 -0.2785421 0.0
0.6688576 -0.25503856 0.29387343 -0.9533138 3.2469674e-07 -0.30198154 0.0
0.6708823 -0.24181686 0.28775358 -0.9456258 -3.215062e-07 -0.3252567 0.0
0.6718575 -0.22732484 0.2849183 -0.9456258 -3.215062e-07 -0.3252567 0.0
0.6734584 -0.21252938 0.28045613 -0.93735874 -3.192625e-07 -0.34836563 0.0
0.6737545 -0.19651113 0.27965924 -0.9373587 -3.192625e-07 -0.34836563 0.0
0.6729969 -0.18125498 0.28169784 -0.93735874 -3.192625e-07 -0.34836563 0.0
0.67165005 -0.16652128 0.28552112 -0.9456258 -3.2150618e-07 -0.3252567 0.0
0.6700972 -0.15153006 0.2900359 -0.9456258 -3.2150618e-07 -0.3252567 0.0
0.6678839 -0.13825534 0.29694757 -0.9533118 -3.2394206e-07 -0.3019879 0.0
0.66536224 -0.1248385 0.30544817 -0.96042377 0.0 -0.278543 0.0
0.6625452 -0.11403932 0.31600314 -0.9729268 0.0 -0.2311135 0.0
0.6599167 -0.10416161 0.3274663 -0.97831136 0.0 -0.20713978 0.0
0.6572349 -0.09485833 0.3413353 -0.987312 3.3627646e-07 -0.15879232 0.0
0.6553503 -0.08863156 0.3538062 -0.99090946 0.0 -0.13453059 0.0
0.6536344 -0.0832914 0.36920112 -0.9963113 -3.3946884e-07 -0.08581323 0.0
0.652586 -0.07993463 0.38497958 -0.9993205 6.2770513e-09 -0.03685901 0.0
0.6522487 -0.079734646 0.39943242 -0.9999243 0.0 -0.012305041 0.0
